# .PCD v0.7 - Point Cloud Data file format
VERSION 0.7
FIELDS x y z intensity
SIZE 4 4 4 4
TYPE F F F F
COUNT 1 1 1 1
WIDTH 1726
HEIGHT 1
VIEWPOINT 0 0 0 1 0 0 0
POINTS 1726
DATA ascii
-2.3909 -7.302 -0.4027 13.0
-2.4228 -7.2704 -0.4016 11.0
-2.4348 -7.2643 -0.4015 6.0
-2.4715 -7.2477 -0.4013 5.0
-2.4835 -7.2415 -0.4012 2.0
-2.5333 -7.2665 -0.4033 1.0
-0.4877 -1.391 -0.0772 5.0
-0.4943 -1.3865 -0.0771 9.0
-0.4947 -1.38 -0.0768 10.0
-0.4777 -1.3118 -0.0732 6.0
-0.4608 -1.2585 -0.0702 8.0
-0.4569 -1.2279 -0.0687 9.0
-0.4521 -1.2084 -0.0676 9.0
-0.4525 -1.1912 -0.0668 9.0
-0.4453 -1.1662 -0.0654 8.0
-0.4462 -1.1509 -0.0647 9.0
-0.4329 -1.111 -0.0625 8.0
-0.4345 -1.0975 -0.0619 8.0
-0.4313 -1.0837 -0.0611 9.0
-0.4351 -1.0779 -0.0609 9.0
-0.4347 -1.0716 -0.0606 9.0
-0.4352 -1.0563 -0.0599 10.0
-0.437 -1.0555 -0.0599 9.0
-0.26 -0.7987 0.1939 100.0
-0.2626 -0.8019 0.1948 94.0
-0.2643 -0.7931 0.193 90.0
-0.2613 -0.7797 0.1899 83.0
-0.2692 -0.7894 0.1926 76.0
-0.2712 -0.7908 0.193 81.0
-0.2791 -0.8005 0.1957 91.0
-0.2843 -0.811 0.1984 100.0
-0.2807 -0.7875 0.193 100.0
-0.2814 -0.7851 0.1926 100.0
-0.2887 -0.7929 0.1948 100.0
-0.2901 -0.7924 0.1948 100.0
-0.2963 -0.7963 0.1962 100.0
-0.2929 -0.783 0.193 100.0
-0.2962 -0.7797 0.1926 100.0
-0.2989 -0.7828 0.1935 100.0
-0.3057 -0.7886 0.1953 100.0
-0.3071 -0.788 0.1953 100.0
-0.3085 -0.7791 0.1935 100.0
-0.3113 -0.7822 0.1944 100.0
-0.3158 -0.7825 0.1948 100.0
-0.3245 -0.8 0.1993 100.0
-0.3296 -0.8 0.1998 91.0
-0.3265 -0.7886 0.1971 94.0
-0.4571 -1.3716 -0.0252 4.0
-0.448 -1.3367 -0.0246 6.0
-0.4473 -1.3116 -0.0242 8.0
-0.4483 -1.3071 -0.0241 8.0
-0.447 -1.2821 -0.0237 8.0
-0.4439 -1.2662 -0.0234 8.0
-0.4317 -1.2112 -0.0224 8.0
-0.4244 -1.184 -0.022 8.0
-0.4263 -1.1706 -0.0217 8.0
-0.4242 -1.1586 -0.0215 8.0
-0.4317 -1.1601 -0.0216 8.0
-0.4253 -1.1369 -0.0212 7.0
-0.4254 -1.1198 -0.0209 8.0
-0.4302 -1.1265 -0.021 9.0
-0.4366 -1.1262 -0.0211 9.0
-0.4349 -1.1161 -0.0209 8.0
-0.438 -1.1063 -0.0208 8.0
-0.4355 -1.0944 -0.0206 8.0
-0.4393 -1.0885 -0.0205 7.0
-0.4427 -1.0914 -0.0206 8.0
-0.4486 -1.089 -0.0206 7.0
-0.449 -1.0845 -0.0205 8.0
-0.2224 -0.6834 0.1926 56.0
-0.2248 -0.6866 0.1936 51.0
-0.2303 -0.691 0.1951 42.0
-0.2302 -0.6869 0.1941 42.0
-0.2351 -0.6893 0.1951 38.0
-0.2313 -0.6743 0.191 39.0
-0.2378 -0.6822 0.1936 34.0
-0.2416 -0.6891 0.1957 37.0
-0.251 -0.7042 0.2003 44.0
-0.2451 -0.6838 0.1946 46.0
-0.2459 -0.6753 0.1926 48.0
-0.2484 -0.6785 0.1936 51.0
-0.256 -0.688 0.1967 70.0
-0.2545 -0.6803 0.1946 85.0
-0.2566 -0.6754 0.1936 72.0
-0.2557 -0.6696 0.192 61.0
-0.2654 -0.6845 0.1967 53.0
-0.2658 -0.6822 0.1962 53.0
-0.2702 -0.6826 0.1967 49.0
-0.2671 -0.6713 0.1936 42.0
-0.2668 -0.661 0.191 43.0
-0.2694 -0.6642 0.192 39.0
-0.2789 -0.677 0.1962 37.0
-0.2764 -0.6676 0.1936 46.0
-0.5084 -1.2113 -0.352 5.0
-0.5098 -1.2086 -0.3515 6.0
-0.5237 -1.2237 -0.3567 8.0
-0.5442 -1.2654 -0.3691 9.0
-0.5709 -1.3085 -0.3825 11.0
-0.5794 -1.3217 -0.3867 11.0
-0.6394 -1.4388 -0.4219 7.0
-0.7821 -1.7517 -0.514 9.0
-0.7952 -1.7563 -0.5166 9.0
-0.8007 -1.7602 -0.5182 7.0
-0.8047 -1.7456 -0.515 9.0
-0.807 -1.7425 -0.5145 10.0
-0.8177 -1.7417 -0.5156 11.0
-0.8216 -1.742 -0.5161 10.0
-0.8362 -1.7501 -0.5197 9.0
-0.8284 -1.7259 -0.513 11.0
-0.8239 -1.6938 -0.5047 10.0
-0.8116 -1.6611 -0.4954 11.0
-0.8063 -1.6293 -0.4871 11.0
-0.7885 -1.5863 -0.4747 11.0
-0.7733 -1.5356 -0.4607 10.0
-0.7682 -1.5187 -0.456 11.0
-0.7847 -1.532 -0.4612 10.0
-0.828 -1.6097 -0.485 9.0
-0.4706 -1.1211 0.0212 8.0
-0.4725 -1.1202 0.0212 8.0
-0.4689 -1.0957 0.0208 8.0
-0.474 -1.1022 0.0209 8.0
-0.4798 -1.0997 0.0209 8.0
-0.4849 -1.1062 0.0211 8.0
-0.4856 -1.0928 0.0209 8.0
-0.4843 -1.0846 0.0207 8.0
-0.4916 -1.0857 0.0208 8.0
-0.5001 -1.0994 0.0211 8.0
-0.5057 -1.0969 0.0211 9.0
-0.5059 -1.0924 0.021 9.0
-0.5116 -1.0897 0.021 9.0
-0.5152 -1.0924 0.0211 9.0
-0.5259 -1.1006 0.0213 9.0
-0.5399 -1.1249 0.0218 9.0
-0.5572 -1.1455 0.0222 8.0
-0.5768 -1.1804 0.0229 8.0
-0.5987 -1.2098 0.0236 8.0
-0.615 -1.2374 0.0241 8.0
-0.6251 -1.2413 0.0243 8.0
-0.6173 -1.2205 0.0239 7.0
-0.6217 -1.2138 0.0238 6.0
-0.6266 -1.2181 0.0239 8.0
-0.4842 -1.1536 -0.2888 5.0
-0.4893 -1.1599 -0.2906 5.0
-0.5007 -1.1699 -0.2938 5.0
-0.5012 -1.1654 -0.2929 5.0
-0.5057 -1.1592 -0.292 5.0
-0.5195 -1.1851 -0.2987 5.0
-0.531 -1.1949 -0.3019 4.0
-0.5482 -1.2278 -0.3104 1.0
-0.9131 -2.0167 -0.5111 8.0
-0.9166 -2.0151 -0.5111 7.0
-0.9309 -2.0193 -0.5133 7.0
-0.9361 -2.0212 -0.5142 7.0
-0.9466 -2.0162 -0.5142 9.0
-0.9476 -2.0093 -0.5129 9.0
-0.9544 -1.9974 -0.5111 9.0
-0.9596 -1.9993 -0.512 8.0
-0.9726 -1.9995 -0.5133 9.0
-0.9744 -1.9943 -0.5124 8.0
-0.9836 -1.9876 -0.512 9.0
-0.9871 -1.9859 -0.512 9.0
-0.9913 -1.9685 -0.5088 7.0
-0.7555 -1.4938 -0.3865 2.0
-0.764 -1.4917 -0.3869 9.0
-0.7648 -1.4869 -0.386 9.0
-0.4994 -1.1897 0.0676 10.0
-0.5076 -1.2035 0.0685 10.0
-0.5171 -1.2082 0.0689 10.0
-0.5152 -1.1981 0.0684 10.0
-0.5207 -1.1936 0.0682 10.0
-0.5292 -1.2073 0.0691 9.0
-0.5369 -1.2083 0.0693 9.0
-0.5423 -1.2146 0.0697 9.0
-0.5536 -1.2227 0.0703 9.0
-0.559 -1.229 0.0708 10.0
-0.5703 -1.237 0.0714 9.0
-0.5791 -1.2505 0.0722 9.0
-0.5874 -1.2511 0.0724 9.0
-0.5913 -1.2537 0.0726 9.0
-0.595 -1.2452 0.0723 7.0
-0.6041 -1.2586 0.0732 6.0
-0.6116 -1.2572 0.0733 6.0
-0.6164 -1.2615 0.0736 6.0
-0.6157 -1.2441 0.0727 7.0
-0.6187 -1.2448 0.0729 9.0
-0.6234 -1.238 0.0726 11.0
-0.6229 -1.2315 0.0723 12.0
-0.6373 -1.2444 0.0733 10.0
-0.6313 -1.2273 0.0723 5.0
-0.4513 -1.0753 -0.2267 4.0
-0.4525 -1.0727 -0.2263 4.0
-0.4619 -1.0793 -0.2282 4.0
-0.47 -1.093 -0.2313 4.0
-0.4773 -1.0941 -0.232 4.0
-0.4761 -1.086 -0.2305 4.0
-0.4847 -1.0908 -0.232 4.0
-0.4866 -1.09 -0.232 4.0
-0.5053 -1.116 -0.2381 4.0
-0.5089 -1.1187 -0.2389 4.0
-0.5137 -1.1143 -0.2385 4.0
-0.528 -1.1401 -0.2442 2.0
-1.0962 -2.3244 -0.4995 6.0
-1.108 -2.3188 -0.4995 6.0
-1.1078 -2.308 -0.4976 6.0
-1.1224 -2.3075 -0.4988 6.0
-1.1247 -2.302 -0.498 7.0
-1.1416 -2.3068 -0.5003 7.0
-1.1456 -2.3048 -0.5003 7.0
-1.155 -2.2935 -0.4992 7.0
-1.1555 -2.2845 -0.4976 2.0
-0.7391 -1.4368 -0.3141 7.0
-0.5382 -1.2823 0.1217 11.0
-0.5366 -1.2722 0.1208 11.0
-0.5433 -1.2694 0.1208 7.0
-0.4975 -1.1568 0.1102 5.0
-0.3529 -0.809 0.0772 11.0
-0.3455 -0.7883 0.0753 26.0
-0.3447 -0.7756 0.0743 31.0
-0.3477 -0.7787 0.0746 37.0
-0.3509 -0.775 0.0744 42.0
-0.3622 -0.7962 0.0765 45.0
-0.3528 -0.7654 0.0737 50.0
-0.3575 -0.772 0.0744 66.0
-0.3607 -0.7683 0.0743 56.0
-0.3646 -0.7731 0.0748 60.0
-0.3702 -0.7748 0.0751 60.0
-0.3733 -0.7778 0.0755 58.0
-0.3713 -0.7632 0.0743 52.0
-0.3735 -0.7644 0.0744 42.0
-0.3826 -0.7732 0.0755 35.0
-0.3937 -0.7922 0.0774 25.0
-0.5207 -1.0339 0.1013 11.0
-0.5998 -1.1859 0.1163 28.0
-0.6303 -1.2307 0.121 27.0
-0.6379 -1.2402 0.122 27.0
-0.4495 -1.071 -0.184 6.0
-0.443 -1.0502 -0.1805 6.0
-0.45 -1.0515 -0.1812 5.0
-0.444 -1.0326 -0.178 5.0
-0.4558 -1.0447 -0.1805 5.0
-0.4608 -1.0511 -0.1818 5.0
-0.4613 -1.038 -0.1799 5.0
-0.4582 -1.0263 -0.178 5.0
-0.4652 -1.0275 -0.1786 5.0
-0.467 -1.0267 -0.1786 5.0
-0.4755 -1.0315 -0.1799 6.0
-0.4807 -1.0378 -0.1812 6.0
-0.4861 -1.0353 -0.1812 8.0
-0.4896 -1.038 -0.1818 7.0
-0.505 -1.0569 -0.1855 7.0
-0.5069 -1.0561 -0.1855 6.0
-0.5193 -1.0676 -0.188 5.0
-0.529 -1.0827 -0.1909 4.0
-1.3729 -2.7743 -0.4903 6.0
-1.3866 -2.7896 -0.4934 6.0
-1.4038 -2.7876 -0.4943 6.0
-1.4042 -2.7763 -0.4928 5.0
-0.7483 -1.4611 -0.26 1.0
-0.7274 -1.4141 -0.2519 4.0
-0.5271 -1.2556 0.1672 24.0
-0.5331 -1.2639 0.1684 31.0
-0.5467 -1.2775 0.1706 42.0
-0.5356 -1.2455 0.1665 48.0
-0.5445 -1.2482 0.1672 50.0
-0.5507 -1.2563 0.1684 51.0
-0.557 -1.2535 0.1684 51.0
-0.5592 -1.2525 0.1684 51.0
-0.5584 -1.2333 0.1662 50.0
-0.5606 -1.2323 0.1662 50.0
-0.571 -1.2385 0.1674 49.0
-0.5748 -1.2411 0.1679 49.0
-0.5796 -1.2345 0.1674 49.0
-0.575 -1.2191 0.1655 48.0
-0.5811 -1.2162 0.1655 47.0
-0.5884 -1.2259 0.167 40.0
-0.5992 -1.2317 0.1682 11.0
-0.5725 -1.1718 0.1601 3.0
-0.567 -1.1458 0.157 3.0
-0.569 -1.1448 0.157 3.0
-0.5884 -1.1684 0.1606 4.0
-0.6164 -1.2187 0.1677 12.0
-0.6199 -1.2103 0.167 24.0
-0.6193 -1.2039 0.1662 22.0
-0.4287 -1.0214 -0.136 6.0
-0.4289 -1.0169 -0.1355 6.0
-0.439 -1.0256 -0.137 5.0
-0.4329 -1.0066 -0.1345 5.0
-0.4334 -0.9934 -0.1331 5.0
-0.4351 -0.9927 -0.1331 5.0
-0.4466 -1.005 -0.135 6.0
-0.4484 -1.0042 -0.135 6.0
-0.4536 -1.0018 -0.135 6.0
-0.4471 -0.983 -0.1326 6.0
-0.4538 -0.9843 -0.1331 7.0
-0.4588 -0.9907 -0.1341 6.0
-0.4657 -0.9919 -0.1345 7.0
-0.4725 -1.0018 -0.136 7.0
-0.4724 -0.9887 -0.1345 7.0
-0.4716 -0.9825 -0.1338 8.0
-0.4837 -0.9943 -0.1358 8.0
-0.4889 -1.0006 -0.1367 9.0
-0.4922 -0.9945 -0.1362 8.0
-0.4939 -0.9937 -0.1362 8.0
-0.5027 -0.9982 -0.1372 8.0
-0.5089 -1.0062 -0.1384 7.0
-0.5185 -1.0124 -0.1397 7.0
-0.5357 -1.0415 -0.1438 4.0
-0.4603 -1.0965 0.1883 26.0
-0.4637 -1.0993 0.189 28.0
-0.4694 -1.0969 0.189 28.0
-0.4776 -1.1106 0.1915 28.0
-0.4834 -1.1081 0.1915 27.0
-0.4814 -1.0982 0.1899 29.0
-0.4869 -1.0957 0.1899 26.0
-0.4937 -1.1057 0.1918 26.0
-0.4978 -1.0995 0.1912 29.0
-0.5022 -1.104 0.1921 27.0
-0.5036 -1.0925 0.1905 26.0
-0.5056 -1.0916 0.1905 25.0
-0.5146 -1.0961 0.1918 26.0
-0.5216 -1.1059 0.1937 26.0
-0.5255 -1.0997 0.193 25.0
-0.524 -1.0917 0.1918 26.0
-0.5331 -1.096 0.193 25.0
-0.5351 -1.0951 0.193 25.0
-0.5502 -1.1118 0.1965 22.0
-0.5478 -1.102 0.1949 17.0
-0.5491 -1.0903 0.1934 5.0
-0.5528 -1.0929 0.194 2.0
-0.5601 -1.0936 0.1946 2.0
-0.5729 -1.1137 0.1984 2.0
-0.4326 -1.0306 -0.0978 9.0
-0.4251 -1.0078 -0.0957 10.0
-0.4272 -0.9983 -0.095 10.0
-0.44 -1.0231 -0.0974 7.0
-0.4422 -1.0135 -0.0967 8.0
-0.4391 -1.0018 -0.0957 8.0
-0.441 -0.9923 -0.095 8.0
-0.4411 -0.9879 -0.0947 8.0
-0.452 -0.9983 -0.0959 10.0
-0.4562 -1.0029 -0.0964 12.0
-0.4571 -0.9915 -0.0955 12.0
-0.4555 -0.9835 -0.0948 12.0
-0.4547 -0.9685 -0.0936 12.0
-0.4615 -0.9785 -0.0947 16.0
-0.4725 -0.9887 -0.0959 16.0
-0.4716 -0.9825 -0.0953 16.0
-0.4759 -0.9782 -0.0952 16.0
-0.4697 -0.9613 -0.0936 16.0
-0.4834 -0.9768 -0.0953 16.0
-0.4957 -0.9973 -0.0974 13.0
-0.4992 -0.9912 -0.0971 11.0
-0.4937 -0.9761 -0.0957 12.0
-0.5041 -0.9842 -0.0967 14.0
-0.5049 -0.9815 -0.0966 12.0
-0.4103 -0.9775 0.2061 56.0
-0.409 -0.9696 0.2045 43.0
-0.4156 -0.971 0.2053 44.0
-0.415 -0.9649 0.2042 49.0
-0.4184 -0.9591 0.2034 52.0
-0.4225 -0.9638 0.2045 54.0
-0.4194 -0.9437 0.2007 50.0
-0.4226 -0.9465 0.2015 59.0
-0.4259 -0.9407 0.2007 50.0
-0.4333 -0.9525 0.2034 46.0
-0.4389 -0.9521 0.2038 40.0
-0.4422 -0.9549 0.2045 44.0
-0.4439 -0.9454 0.203 44.0
-0.448 -0.95 0.2042 45.0
-0.4537 -0.9495 0.2045 43.0
-0.457 -0.9522 0.2053 44.0
-0.4646 -0.9551 0.2065 52.0
-0.4533 -0.9278 0.2007 50.0
-0.4606 -0.9308 0.2019 48.0
-0.4631 -0.9318 0.2023 39.0
-0.4733 -0.9399 0.2045 40.0
-0.4732 -0.9355 0.2038 40.0
-0.4707 -0.9191 0.2007 40.0
-0.4759 -0.9253 0.2023 43.0
-0.4414 -1.0516 -0.0598 9.0
-0.4401 -1.0434 -0.0593 8.0
-0.444 -1.0374 -0.0591 8.0
-0.4348 -1.011 -0.0577 8.0
-0.4432 -1.016 -0.0581 7.0
-0.4434 -1.0116 -0.0579 7.0
-0.4502 -1.013 -0.0581 8.0
-0.4519 -1.0122 -0.0581 9.0
-0.4449 -0.9825 -0.0565 9.0
-0.4474 -0.9835 -0.0566 9.0
-0.4582 -0.994 -0.0574 9.0
-0.4591 -0.9913 -0.0573 9.0
-0.4668 -0.9944 -0.0576 9.0
-0.4635 -0.9827 -0.0569 9.0
-0.4667 -0.9767 -0.0567 9.0
-0.4771 -0.9939 -0.0578 9.0
-0.4805 -0.9878 -0.0576 10.0
-0.4814 -0.9852 -0.0575 9.0
-0.4855 -0.9809 -0.0574 9.0
-0.4854 -0.9765 -0.0572 9.0
-0.4968 -0.9865 -0.0579 9.0
-0.5003 -0.9892 -0.0581 9.0
-0.5071 -0.9902 -0.0583 9.0
-0.5079 -0.9875 -0.0582 9.0
-0.3304 -0.787 0.1971 89.0
-0.3332 -0.79 0.198 100.0
-0.3397 -0.7937 0.1993 100.0
-0.3403 -0.7913 0.1989 100.0
-0.3405 -0.7806 0.1966 100.0
-0.3435 -0.7835 0.1975 100.0
-0.3435 -0.7729 0.1953 100.0
-0.3488 -0.7812 0.1975 100.0
-0.3521 -0.7776 0.1971 100.0
-0.3518 -0.7734 0.1962 100.0
-0.3508 -0.761 0.1935 90.0
-0.3595 -0.7763 0.1975 76.0
-0.3719 -0.792 0.202 67.0
-0.3699 -0.7843 0.2002 80.0
-0.3672 -0.7684 0.1966 80.0
-0.371 -0.773 0.198 74.0
-0.3734 -0.7676 0.1971 68.0
-0.3781 -0.7739 0.1989 70.0
-0.3777 -0.7632 0.1966 89.0
-0.3756 -0.7556 0.1948 92.0
-0.3813 -0.7571 0.1957 65.0
-0.3835 -0.7582 0.1962 53.0
-0.3909 -0.7632 0.198 51.0
-0.3877 -0.7538 0.1957 38.0
-0.4427 -1.0547 -0.02 6.0
-0.4445 -1.0539 -0.02 6.0
-0.4516 -1.0552 -0.02 6.0
-0.4503 -1.0471 -0.0199 6.0
-0.4566 -1.0466 -0.0199 7.0
-0.452 -1.0311 -0.0197 7.0
-0.4572 -1.0288 -0.0197 7.0
-0.4631 -1.0371 -0.0198 6.0
-0.4685 -1.0347 -0.0198 6.0
-0.4662 -1.0248 -0.0197 8.0
-0.468 -1.0151 -0.0195 8.0
-0.4698 -1.0143 -0.0195 8.0
-0.4785 -1.0191 -0.0197 8.0
-0.4871 -1.0327 -0.0199 9.0
-0.4837 -1.0122 -0.0196 9.0
-0.4802 -1.0005 -0.0194 8.0
-0.4907 -1.0088 -0.0196 8.0
-0.4925 -1.0079 -0.0196 8.0
-0.5064 -1.0234 -0.0199 8.0
-0.5065 -1.0189 -0.0199 8.0
-0.51 -1.0127 -0.0198 8.0
-0.5136 -1.0153 -0.0199 8.0
-0.5296 -1.0341 -0.0203 7.0
-0.5387 -1.0474 -0.0206 8.0
-0.2864 -0.6822 0.1983 52.0
-0.2763 -0.655 0.1905 52.0
-0.2828 -0.6607 0.1926 52.0
-0.2885 -0.6708 0.1957 61.0
-0.2912 -0.6675 0.1951 59.0
-0.2901 -0.6617 0.1936 55.0
-0.2895 -0.6514 0.191 48.0
-0.2906 -0.6509 0.191 39.0
-0.2964 -0.6547 0.1926 39.0
-0.2992 -0.6577 0.1936 38.0
-0.3049 -0.6614 0.1951 42.0
-0.2971 -0.6416 0.1895 49.0
-0.3046 -0.6488 0.192 48.0
-0.3033 -0.643 0.1905 52.0
-0.3123 -0.6537 0.1941 59.0
-0.3118 -0.6496 0.1931 72.0
-0.3076 -0.6323 0.1884 67.0
-0.3138 -0.6422 0.1915 52.0
-0.317 -0.6406 0.1915 52.0
-0.3207 -0.6453 0.1931 42.0
-0.3224 -0.6401 0.192 43.0
-0.32 -0.6327 0.19 40.0
-0.3258 -0.6362 0.1915 39.0
-0.3252 -0.6322 0.1905 39.0
-0.8926 -1.7133 -0.5176 11.0
-0.8974 -1.7151 -0.5187 9.0
-0.9007 -1.7003 -0.5156 11.0
-0.9082 -1.7073 -0.5182 9.0
-0.9201 -1.7096 -0.5202 9.0
-0.925 -1.7114 -0.5213 9.0
-0.9256 -1.6913 -0.5166 10.0
-0.9285 -1.6897 -0.5166 11.0
-0.9361 -1.6833 -0.5161 11.0
-0.9278 -1.6614 -0.5099 8.0
-0.7568 -1.3387 -0.412 5.0
-0.7429 -1.3088 -0.4032 11.0
-0.7497 -1.3049 -0.4032 21.0
-0.751 -1.3019 -0.4027 17.0
-0.817 -1.3998 -0.4343 8.0
-0.966 -1.6484 -0.5119 11.0
-0.9805 -1.6533 -0.515 11.0
-0.929 -1.5603 -0.4866 5.0
-0.7595 -1.261 -0.3944 11.0
-0.7537 -1.2465 -0.3903 15.0
-0.7614 -1.244 -0.3908 13.0
-0.7575 -1.2328 -0.3877 12.0
-0.7597 -1.2224 -0.3856 15.0
-0.7536 -1.208 -0.3815 11.0
-0.6292 -1.2077 0.0238 8.0
-0.6276 -1.1995 0.0236 8.0
-0.6309 -1.191 0.0235 7.0
-0.6273 -1.1793 0.0233 7.0
-0.6321 -1.1745 0.0233 8.0
-0.6304 -1.1663 0.0231 8.0
-0.6365 -1.163 0.0231 8.0
-0.6327 -1.1514 0.0229 8.0
-0.6269 -1.1272 0.0225 8.0
-0.6289 -1.1261 0.0225 8.0
-0.6288 -1.1124 0.0223 8.0
-0.6327 -1.1147 0.0224 8.0
-0.6326 -1.101 0.0222 8.0
-0.6205 -1.0757 0.0217 8.0
-0.632 -1.0829 0.0219 8.0
-0.6299 -1.0749 0.0217 8.0
-0.6365 -1.0733 0.0218 7.0
-0.6281 -1.055 0.0214 6.0
-0.6293 -1.0449 0.0213 5.0
-0.626 -1.0353 0.0211 5.0
-0.6034 -0.9858 0.0202 4.0
-0.5486 -0.8928 0.0183 4.0
-0.5119 -0.8237 0.0169 7.0
-0.4827 -0.7736 0.0159 13.0
-0.7762 -1.4897 -0.3878 8.0
-1.0173 -1.9442 -0.5066 7.0
-1.0435 -1.97 -0.5147 9.0
-1.0424 -1.9596 -0.5124 8.0
-1.051 -1.9528 -0.512 9.0
-1.0081 -1.8652 -0.4895 3.0
-0.7363 -1.3454 -0.3541 6.0
-0.7424 -1.3509 -0.3559 11.0
-0.7445 -1.3386 -0.3536 14.0
-0.7468 -1.3373 -0.3536 11.0
-0.9638 -1.7049 -0.4522 7.0
-1.0947 -1.9286 -0.512 9.0
-1.1135 -1.9381 -0.516 9.0
-1.116 -1.9344 -0.5156 9.0
-1.1198 -1.9187 -0.5129 7.0
-0.7192 -1.2274 -0.3284 1.0
-0.7018 -1.1834 -0.3176 3.0
-0.7058 -1.1855 -0.3185 5.0
-0.7118 -1.1819 -0.3185 5.0
-0.7018 -1.1606 -0.3131 5.0
-0.6989 -1.1419 -0.3091 5.0
-0.6948 -1.1307 -0.3064 4.0
-0.6964 -1.1205 -0.3046 4.0
-0.6942 -1.1127 -0.3028 5.0
-0.622 -1.1938 0.0705 4.0
-0.4315 -0.8247 0.0488 5.0
-0.4132 -0.7801 0.0463 14.0
-0.4174 -0.7847 0.0466 17.0
-0.4203 -0.7809 0.0465 28.0
-0.414 -0.7661 0.0456 34.0
-0.419 -0.7656 0.0457 41.0
-0.4184 -0.7614 0.0455 42.0
-0.4349 -0.782 0.0469 37.0
-0.4343 -0.7777 0.0467 40.0
-0.4295 -0.7598 0.0457 45.0
-0.4358 -0.7677 0.0463 39.0
-0.4478 -0.7793 0.0471 35.0
-0.4491 -0.7785 0.0471 29.0
-0.453 -0.7762 0.0471 29.0
-0.4514 -0.7703 0.0468 16.0
-0.4656 -0.7851 0.0478 15.0
-0.5313 -0.8924 0.0544 4.0
-0.6616 -1.0984 0.0672 4.0
-0.7007 -1.1588 0.071 4.0
-0.7059 -1.1533 0.0709 5.0
-0.7163 -1.1656 0.0717 5.0
-0.7264 -1.1688 0.0721 5.0
-0.7337 -1.176 0.0726 5.0
-0.7484 -1.4364 -0.3148 10.0
-0.7454 -1.4247 -0.3125 7.0
-0.7306 -1.3792 -0.3034 5.0
-0.7219 -1.3572 -0.2988 10.0
-0.7304 -1.3571 -0.2996 13.0
-0.7318 -1.3541 -0.2992 10.0
-0.7342 -1.3416 -0.2973 4.0
-1.2358 -2.2488 -0.4988 6.0
-1.249 -2.2459 -0.4995 6.0
-1.253 -2.2438 -0.4995 6.0
-1.2705 -2.2474 -0.5018 6.0
-1.2657 -2.2298 -0.4984 7.0
-1.2832 -2.2334 -0.5007 7.0
-1.2861 -2.2294 -0.5003 6.0
-0.663 -1.1179 -0.2526 2.0
-0.6629 -1.1133 -0.2519 4.0
-0.6665 -1.1066 -0.2511 4.0
-0.6664 -1.1021 -0.2503 4.0
-0.6621 -1.0817 -0.2465 4.0
-0.6619 -1.0772 -0.2458 4.0
-0.6591 -1.0605 -0.2427 4.0
-0.6589 -1.056 -0.2419 4.0
-0.6499 -1.2475 0.1231 27.0
-0.6512 -1.2446 0.1229 30.0
-0.6547 -1.236 0.1224 29.0
-0.6559 -1.2331 0.1222 25.0
-0.661 -1.2281 0.122 23.0
-0.6707 -1.241 0.1234 24.0
-0.6791 -1.2409 0.1238 22.0
-0.6755 -1.2293 0.1227 23.0
-0.6875 -1.2363 0.1238 24.0
-0.6916 -1.2386 0.1241 23.0
-0.702 -1.2419 0.1248 24.0
-0.7022 -1.2372 0.1245 22.0
-0.7067 -1.23 0.1241 21.0
-0.7109 -1.2322 0.1245 22.0
-0.7251 -1.2424 0.1259 21.0
-0.7293 -1.2445 0.1262 20.0
-0.746 -1.2579 0.1279 20.0
-0.74 -1.2429 0.1266 21.0
-0.7555 -1.2545 0.1281 23.0
-0.7546 -1.248 0.1276 20.0
-0.7822 -1.2779 0.1311 24.0
-0.7823 -1.2731 0.1307 27.0
-0.7961 -1.281 0.132 30.0
-0.8078 -1.2948 0.1335 29.0
-0.7238 -1.3892 -0.2481 11.0
-0.7281 -1.3915 -0.2487 12.0
-0.736 -1.3895 -0.249 11.0
-0.744 -1.3987 -0.2509 8.0
-0.7667 -1.4246 -0.2562 1.0
-1.4849 -2.7475 -0.4946 6.0
-1.5021 -2.7448 -0.4956 6.0
-1.5022 -2.7336 -0.494 7.0
-1.5131 -2.7208 -0.4931 6.0
-1.5207 -2.7233 -0.494 7.0
-1.5389 -2.7222 -0.4953 6.0
-1.5426 -2.7178 -0.495 3.0
-0.6732 -1.167 -0.2134 1.0
-0.6333 -1.085 -0.199 2.0
-0.6302 -1.0754 -0.1974 5.0
-0.6328 -1.067 -0.1965 5.0
-0.6306 -1.0591 -0.1952 5.0
-0.636 -1.0559 -0.1952 5.0
-0.6296 -1.0413 -0.1927 5.0
-0.6404 -1.0463 -0.1943 4.0
-0.6422 -1.0452 -0.1943 4.0
-0.6392 -1.0285 -0.1918 4.0
-0.6326 -1.0139 -0.1893 5.0
-0.6265 -1.2024 0.1665 38.0
-0.6304 -1.2048 0.167 45.0
-0.6402 -1.2086 0.1679 38.0
-0.6433 -1.2093 0.1682 30.0
-0.6426 -1.1939 0.1665 27.0
-0.6428 -1.1893 0.166 25.0
-0.6604 -1.2068 0.1689 23.0
-0.6663 -1.2126 0.1699 22.0
-0.6705 -1.2057 0.1694 23.0
-0.6726 -1.2046 0.1694 27.0
-0.6789 -1.201 0.1694 25.0
-0.683 -1.2033 0.1699 23.0
-0.6952 -1.21 0.1713 23.0
-0.6993 -1.2122 0.1718 23.0
-0.7054 -1.2087 0.1718 28.0
-0.7096 -1.2109 0.1723 25.0
-0.722 -1.2174 0.1738 20.0
-0.7292 -1.2247 0.175 15.0
-0.7343 -1.2192 0.1748 11.0
-0.7313 -1.2095 0.1735 11.0
-0.7348 -1.2004 0.1728 11.0
-0.7431 -1.2093 0.1743 12.0
-0.7513 -1.2089 0.1748 13.0
-0.7544 -1.2092 0.175 13.0
-0.5439 -1.044 -0.1445 4.0
-0.5457 -1.043 -0.1445 3.0
-0.6895 -1.3016 -0.1809 2.0
-0.7355 -1.3828 -0.1923 10.0
-0.7423 -1.3792 -0.1923 10.0
-0.7381 -1.3656 -0.1906 10.0
-1.865 -3.4079 -0.477 4.0
-1.8681 -3.3994 -0.4763 5.0
-0.588 -1.0358 -0.1462 3.0
-0.5963 -1.0379 -0.147 4.0
-0.5922 -1.0265 -0.1455 4.0
-0.5894 -1.0098 -0.1436 3.0
-0.5811 -0.9917 -0.1411 4.0
-0.5812 -0.9801 -0.1399 4.0
-0.5931 -0.9961 -0.1423 4.0
-0.595 -0.988 -0.1416 4.0
-0.5947 -0.9835 -0.1411 4.0
-0.5938 -0.9702 -0.1397 4.0
-0.5913 -0.9624 -0.1387 4.0
-0.5962 -0.9593 -0.1387 4.0
-0.6042 -0.9684 -0.1401 4.0
-0.5695 -1.0932 0.1952 5.0
-0.5669 -1.0834 0.1937 11.0
-0.5807 -1.0962 0.1965 16.0
-0.5882 -1.1057 0.1984 22.0
-0.5973 -1.1098 0.1996 22.0
-0.6011 -1.1122 0.2002 22.0
-0.6031 -1.1021 0.199 22.0
-0.6041 -1.0993 0.1987 20.0
-0.6193 -1.1135 0.2018 20.0
-0.6212 -1.1124 0.2018 18.0
-0.6251 -1.1057 0.2012 20.0
-0.6241 -1.0995 0.2002 19.0
-0.6308 -1.0979 0.2005 18.0
-0.6386 -1.1071 0.2024 16.0
-0.6442 -1.1038 0.2024 13.0
-0.6462 -1.1027 0.2024 12.0
-0.6479 -1.0925 0.2012 12.0
-0.6498 -1.0914 0.2012 12.0
-0.6492 -1.0779 0.1993 13.0
-0.6613 -1.0937 0.2024 20.0
-0.6652 -1.0867 0.2018 20.0
-0.6598 -1.0738 0.1996 17.0
-0.6705 -1.0788 0.2012 13.0
-0.6702 -1.0743 0.2005 12.0
-0.5174 -0.993 -0.098 11.0
-0.521 -0.9957 -0.0983 11.0
-0.5307 -1.0018 -0.0992 11.0
-0.5333 -1.0026 -0.0994 11.0
-0.5477 -1.0176 -0.1011 11.0
-0.5494 -1.0166 -0.1011 11.0
-0.5672 -1.0364 -0.1034 7.0
-0.5728 -1.0424 -0.1041 5.0
-0.5704 -1.0256 -0.1027 7.0
-0.5751 -1.0298 -0.1032 9.0
-0.5736 -1.0146 -0.102 7.0
-0.5704 -1.005 -0.1011 7.0
-0.5668 -0.9864 -0.0995 7.0
-0.5665 -0.982 -0.0992 7.0
-0.5715 -0.9791 -0.0992 7.0
-0.5752 -0.9815 -0.0995 9.0
-0.5803 -0.9785 -0.0995 9.0
-0.5728 -0.9621 -0.098 9.0
-0.5808 -0.9643 -0.0985 9.0
-0.5897 -0.9752 -0.0997 11.0
-0.5898 -0.9635 -0.0988 11.0
-0.5935 -0.9659 -0.0992 11.0
-0.59 -0.9493 -0.0978 9.0
-0.6032 -0.9669 -0.0997 11.0
-0.4862 -0.9332 0.2045 50.0
-0.4869 -0.9306 0.2042 46.0
-0.4944 -0.9334 0.2053 48.0
-0.4914 -0.9238 0.2034 45.0
-0.4959 -0.9214 0.2034 38.0
-0.4975 -0.9206 0.2034 26.0
-0.5005 -0.9145 0.2026 22.0
-0.5077 -0.924 0.2049 23.0
-0.5029 -0.9042 0.2011 24.0
-0.5044 -0.9033 0.2011 26.0
-0.5092 -0.9007 0.2011 26.0
-0.5136 -0.9049 0.2023 23.0
-0.5174 -0.9005 0.2019 21.0
-0.515 -0.8928 0.2003 19.0
-0.5225 -0.8953 0.2015 13.0
-0.5261 -0.8977 0.2023 12.0
-0.5318 -0.8967 0.2026 12.0
-0.5353 -0.8991 0.2034 15.0
-0.5277 -0.8762 0.1988 17.0
-0.5232 -0.8652 0.1965 21.0
-0.5299 -0.8657 0.1973 21.0
-0.5334 -0.8681 0.1981 21.0
-0.5409 -0.8704 0.1992 15.0
-0.5373 -0.8611 0.1973 11.0
-0.5085 -0.976 -0.0577 9.0
-0.5232 -0.9999 -0.0591 8.0
-0.5282 -0.9972 -0.0591 8.0
-0.5281 -0.9927 -0.0589 8.0
-0.5405 -1.0042 -0.0598 8.0
-0.5555 -1.0279 -0.0612 8.0
-0.5743 -1.0495 -0.0627 7.0
-0.5714 -1.0397 -0.0622 6.0
-0.5737 -1.0316 -0.0619 6.0
-0.5697 -1.0201 -0.0612 8.0
-0.5671 -1.0032 -0.0604 8.0
-0.5689 -1.0022 -0.0604 8.0
-0.5721 -0.9958 -0.0602 8.0
-0.5719 -0.9913 -0.06 8.0
-0.5708 -0.978 -0.0593 8.0
-0.5725 -0.977 -0.0593 9.0
-0.5827 -0.9826 -0.0599 9.0
-0.5834 -0.9799 -0.0598 9.0
-0.5853 -0.9718 -0.0595 9.0
-0.587 -0.9708 -0.0595 9.0
-0.586 -0.9574 -0.0588 9.0
-0.596 -0.97 -0.0597 9.0
-0.5967 -0.9601 -0.0592 9.0
-0.6047 -0.9693 -0.0599 9.0
-0.3818 -0.7328 0.1908 26.0
-0.3858 -0.7373 0.1921 26.0
-0.3922 -0.7405 0.1935 27.0
-0.3917 -0.7364 0.1926 27.0
-0.3944 -0.7327 0.1921 38.0
-0.3956 -0.732 0.1921 49.0
-0.3967 -0.7248 0.1908 52.0
-0.3979 -0.7241 0.1908 52.0
-0.4073 -0.7323 0.1935 47.0
-0.4057 -0.7265 0.1921 38.0
-0.4037 -0.7142 0.1894 27.0
-0.4079 -0.7186 0.1908 23.0
-0.4145 -0.7215 0.1921 23.0
-0.4129 -0.7157 0.1908 23.0
-0.4224 -0.7237 0.1935 24.0
-0.4197 -0.7162 0.1917 28.0
-0.4254 -0.7174 0.1926 27.0
-0.4227 -0.71 0.1908 33.0
-0.4323 -0.7178 0.1935 33.0
-0.4275 -0.7071 0.1908 38.0
-0.4263 -0.6964 0.1885 32.0
-0.4254 -0.6924 0.1876 27.0
-0.432 -0.6952 0.189 22.0
-0.4384 -0.7027 0.1912 21.0
-0.5636 -1.0818 -0.0213 6.0
-0.585 -1.118 -0.022 7.0
-0.5962 -1.1256 -0.0222 8.0
-0.602 -1.1317 -0.0224 8.0
-0.6056 -1.1252 -0.0223 8.0
-0.5971 -1.1048 -0.0219 6.0
-0.5866 -1.0718 -0.0213 6.0
-0.5807 -1.0568 -0.021 6.0
-0.5831 -1.0486 -0.0209 6.0
-0.5869 -1.051 -0.021 6.0
-0.5865 -1.0375 -0.0208 6.0
-0.5873 -1.0347 -0.0208 7.0
-0.5868 -1.0213 -0.0206 7.0
-0.5866 -1.0168 -0.0205 6.0
-0.5957 -1.0207 -0.0206 6.0
-0.5894 -1.0058 -0.0203 6.0
-0.5886 -0.9924 -0.0201 6.0
-0.5913 -0.9931 -0.0202 6.0
-0.5974 -0.9918 -0.0202 5.0
-0.6053 -1.001 -0.0204 5.0
-0.6034 -0.9858 -0.0202 5.0
-0.5988 -0.9745 -0.02 5.0
-0.6069 -0.9766 -0.0201 5.0
-0.6139 -0.984 -0.0202 5.0
-0.3383 -0.6493 0.1962 41.0
-0.3323 -0.635 0.192 48.0
-0.3346 -0.6316 0.1915 48.0
-0.3321 -0.6242 0.1895 54.0
-0.3406 -0.6328 0.1926 74.0
-0.3435 -0.6356 0.1936 85.0
-0.3469 -0.6338 0.1936 93.0
-0.3424 -0.623 0.1905 74.0
-0.3427 -0.6162 0.1889 49.0
-0.3457 -0.619 0.19 45.0
-0.3565 -0.6306 0.1941 38.0
-0.3557 -0.6267 0.1931 34.0
-0.3532 -0.6147 0.19 36.0
-0.3523 -0.6108 0.1889 36.0
-0.3603 -0.6173 0.1915 39.0
-0.3702 -0.6317 0.1962 41.0
-0.3735 -0.6298 0.1962 45.0
-0.3647 -0.6125 0.191 61.0
-0.3708 -0.6156 0.1926 100.0
-0.3798 -0.6282 0.1967 100.0
-0.3802 -0.6212 0.1951 100.0
-0.3813 -0.6205 0.1951 43.0
-0.3753 -0.6038 0.1905 48.0
-0.3763 -0.6032 0.1905 100.0
-0.7455 -1.1811 -0.3743 11.0
-0.7434 -1.1733 -0.3722 11.0
-0.7377 -1.1518 -0.3665 8.0
-0.7272 -1.131 -0.3603 8.0
-0.7436 -1.1433 -0.3655 10.0
-0.7488 -1.1469 -0.367 8.0
-0.7718 -1.1687 -0.3753 8.0
-0.7845 -1.1835 -0.3805 11.0
-0.7961 -1.1874 -0.3831 16.0
-0.8089 -1.202 -0.3882 28.0
-0.8226 -1.2091 -0.3919 33.0
-0.8422 -1.2332 -0.4001 16.0
-1.0418 -1.5085 -0.4912 14.0
-1.0962 -1.5813 -0.5156 11.0
-1.1089 -1.5819 -0.5176 11.0
-1.1139 -1.5831 -0.5187 9.0
-1.1264 -1.5838 -0.5207 9.0
-1.1269 -1.5786 -0.5197 9.0
-1.1351 -1.5727 -0.5197 9.0
-1.139 -1.5723 -0.5202 9.0
-1.1484 -1.5679 -0.5207 9.0
-1.1534 -1.569 -0.5218 9.0
-1.159 -1.56 -0.5207 9.0
-1.1594 -1.5549 -0.5197 9.0
-0.4889 -0.7745 0.016 20.0
-0.4881 -0.7703 0.0159 23.0
-0.4929 -0.7695 0.016 28.0
-0.4899 -0.762 0.0158 30.0
-0.4906 -0.7543 0.0157 34.0
-0.4941 -0.7568 0.0158 30.0
-0.5047 -0.7643 0.016 27.0
-0.5049 -0.7617 0.016 28.0
-0.5134 -0.7657 0.0161 26.0
-0.5091 -0.7565 0.0159 26.0
-0.5208 -0.7655 0.0162 19.0
-0.5278 -0.7728 0.0163 10.0
-0.5364 -0.7766 0.0165 8.0
-0.5377 -0.7757 0.0165 2.0
-3.2208 -4.5947 0.0979 1.0
-3.1989 -4.5465 0.097 2.0
-3.2219 -4.5303 0.097 3.0
-3.2228 -4.5149 0.0968 3.0
-3.23 -4.4753 0.0963 3.0
-3.2191 -4.4437 0.0958 3.0
-3.2281 -4.4074 0.0954 3.0
-3.2287 -4.3921 0.0952 3.0
-3.2413 -4.3629 0.0949 3.0
-3.2155 -4.3123 0.0939 3.0
-0.7011 -1.1107 -0.3032 5.0
-0.7009 -1.1062 -0.3023 5.0
-0.7042 -1.0995 -0.3014 5.0
-0.7125 -1.1081 -0.3041 5.0
-0.714 -1.0978 -0.3023 5.0
-0.7117 -1.09 -0.3005 5.0
-0.7238 -1.096 -0.3032 5.0
-0.7376 -1.1126 -0.3082 5.0
-0.7455 -1.112 -0.3091 5.0
-0.7518 -1.1172 -0.3109 5.0
-0.7575 -1.1133 -0.3109 5.0
-0.7726 -1.1313 -0.3163 5.0
-0.7852 -1.1369 -0.319 5.0
-0.796 -1.1483 -0.3226 5.0
-0.802 -1.1441 -0.3226 5.0
-0.7984 -1.1348 -0.3203 2.0
-1.2875 -1.8104 -0.5129 8.0
-1.2975 -1.8177 -0.5156 8.0
-1.3138 -1.8203 -0.5183 8.0
-1.3159 -1.8165 -0.5178 9.0
-1.3196 -1.8017 -0.5156 7.0
-1.3216 -1.7978 -0.5151 8.0
-1.3353 -1.7974 -0.5169 9.0
-1.3443 -1.8028 -0.5192 9.0
-0.7526 -1.1924 0.0739 5.0
-0.7654 -1.208 0.0749 4.0
-0.7993 -1.2479 0.0777 4.0
-0.862 -1.3406 0.0835 1.0
-3.4569 -5.2948 0.3314 1.0
-3.4075 -5.1599 0.3241 5.0
-3.3878 -5.1107 0.3213 6.0
-3.3801 -5.0414 0.3181 6.0
-3.3643 -4.9991 0.3158 8.0
-3.3637 -4.944 0.3134 9.0
-3.3453 -4.8985 0.3109 10.0
-3.3437 -4.8415 0.3084 10.0
-3.3294 -4.8029 0.3063 11.0
-3.3407 -4.7657 0.305 12.0
-3.3318 -4.7354 0.3034 13.0
-3.3279 -4.6794 0.3009 13.0
-3.3175 -4.6476 0.2993 13.0
-3.3325 -4.6172 0.2984 13.0
-3.33 -4.5968 0.2975 14.0
-3.3351 -4.5535 0.2958 15.0
-3.323 -4.5203 0.294 18.0
-3.3303 -4.4826 0.2927 18.0
-3.3298 -4.4656 0.2919 19.0
-0.6728 -1.0658 -0.245 4.0
-0.6641 -1.0481 -0.2412 4.0
-0.666 -1.0399 -0.24 4.0
-0.6626 -1.0304 -0.2381 4.0
-0.6786 -1.0434 -0.2419 4.0
-0.6826 -1.0455 -0.2427 4.0
-0.6773 -1.0256 -0.2389 4.0
-0.6877 -1.0375 -0.2419 4.0
-0.6822 -1.0175 -0.2381 4.0
-0.6993 -1.0391 -0.2435 4.0
-0.7068 -1.0388 -0.2442 4.0
-0.7152 -1.0473 -0.2465 4.0
-0.7207 -1.0436 -0.2465 5.0
-0.7337 -1.0585 -0.2503 4.0
-0.7415 -1.0578 -0.2511 4.0
-0.7637 -1.0854 -0.258 3.0
-1.4954 -2.0949 -0.5003 6.0
-1.5121 -2.095 -0.5022 7.0
-1.5215 -2.1003 -0.5041 6.0
-1.5313 -2.0907 -0.5037 6.0
-1.5384 -2.0928 -0.5049 6.0
-1.5385 -2.0708 -0.5014 7.0
-1.5444 -2.0712 -0.5022 6.0
-0.8146 -1.2906 0.1335 38.0
-0.8105 -1.2791 0.1325 55.0
-0.8113 -1.2667 0.1316 19.0
-24.181 -37.1787 3.8802 11.0
-22.8819 -34.5184 3.6232 10.0
-21.0155 -31.2272 3.2931 17.0
-20.7092 -30.4384 3.2209 8.0
-23.2635 -34.0647 3.6089 10.0
-24.0524 -34.6973 3.6937 10.0
-24.0644 -33.8368 3.6327 10.0
-24.1604 -33.8467 3.6382 10.0
-23.8336 -33.0218 3.5629 9.0
-23.8211 -32.8833 3.5525 9.0
-24.0047 -32.7742 3.5542 9.0
-23.2505 -31.2954 3.4109 9.0
-0.6358 -1.0073 -0.1887 4.0
-0.6418 -1.0128 -0.1899 5.0
-0.6457 -1.008 -0.1896 5.0
-0.6453 -1.0036 -0.189 5.0
-0.6473 -0.9952 -0.188 4.0
-0.6469 -0.9908 -0.1874 4.0
-0.6542 -0.9907 -0.188 4.0
-0.656 -0.9895 -0.188 4.0
-0.6644 -0.991 -0.189 5.0
-0.6706 -0.9964 -0.1902 5.0
-0.68 -0.9995 -0.1915 5.0
-0.6862 -1.0049 -0.1927 5.0
-0.6915 -1.0013 -0.1927 5.0
-0.7022 -1.013 -0.1952 5.0
-0.7007 -0.9996 -0.1934 5.0
-0.7048 -1.0016 -0.194 5.0
-0.7213 -1.0142 -0.1971 5.0
-0.7334 -1.0274 -0.1999 4.0
-1.837 -2.5452 -0.4971 2.0
-1.8356 -2.534 -0.4956 6.0
-1.8547 -2.5323 -0.4971 6.0
-1.8591 -2.5291 -0.4971 6.0
-1.8731 -2.5212 -0.4975 6.0
-1.8787 -2.5195 -0.4978 6.0
-0.7576 -1.2002 0.1743 13.0
-0.7586 -1.1972 0.174 13.0
-0.7752 -1.2102 0.1765 11.0
-0.7794 -1.2122 0.177 11.0
-0.7901 -1.2148 0.1779 11.0
-0.7824 -1.1984 0.1757 12.0
-0.7931 -1.201 0.1767 11.0
-0.8007 -1.2078 0.1779 11.0
-0.8169 -1.2185 0.1801 9.0
-0.8213 -1.2203 0.1806 4.0
-21.2319 -31.2067 4.6344 10.0
-21.4741 -31.0936 4.6398 10.0
-21.9716 -31.6956 4.7354 10.0
-22.9155 -31.1729 4.7505 10.0
-0.6061 -0.9602 -0.1394 4.0
-0.6056 -0.9558 -0.1389 4.0
-0.6049 -0.9445 -0.1377 4.0
-0.6119 -0.9517 -0.1389 4.0
-0.6277 -0.9652 -0.1414 4.0
-0.6294 -0.9641 -0.1414 5.0
-0.6257 -0.9475 -0.1394 4.0
-0.6274 -0.9464 -0.1394 4.0
-0.6345 -0.9464 -0.1399 4.0
-0.645 -0.9585 -0.1419 4.0
-0.6477 -0.9519 -0.1414 4.0
-0.6471 -0.9475 -0.1409 4.0
-0.6543 -0.9474 -0.1414 4.0
-0.6695 -0.9658 -0.1443 5.0
-0.6837 -0.9753 -0.1462 6.0
-0.6831 -0.9709 -0.1458 6.0
-0.688 -0.9674 -0.1458 6.0
-0.6908 -0.9678 -0.146 3.0
-2.3072 -3.1967 -0.4841 4.0
-2.3198 -3.2023 -0.4855 6.0
-2.333 -3.1853 -0.4848 4.0
-2.3315 -3.1717 -0.4833 3.0
-2.3416 -3.1519 -0.4821 3.0
-2.3578 -3.1621 -0.4843 3.0
-0.6737 -1.0674 0.1999 13.0
-0.6809 -1.0746 0.2015 19.0
-0.6851 -1.0696 0.2012 20.0
-0.688 -1.07 0.2015 17.0
-0.6968 -1.0714 0.2024 16.0
-0.6965 -1.0669 0.2018 13.0
-0.7054 -1.0681 0.2027 11.0
-0.6974 -1.0521 0.1999 9.0
-0.6996 -1.0435 0.199 8.0
-0.7092 -1.0538 0.2012 8.0
-0.7167 -1.0534 0.2018 11.0
-0.723 -1.0587 0.2031 11.0
-0.7218 -1.0451 0.2012 10.0
-0.7281 -1.0504 0.2024 8.0
-0.7245 -1.0336 0.1999 7.0
-0.7309 -1.0388 0.2012 7.0
-0.7339 -1.0319 0.2005 8.0
-0.7265 -1.0177 0.198 11.0
-0.7249 -1.0043 0.1962 11.0
-0.7405 -1.0222 0.1999 12.0
-0.7529 -1.0279 0.2018 12.0
-0.7523 -1.0234 0.2012 9.0
-0.7469 -1.0053 0.1984 8.0
-0.7451 -0.9993 0.1974 8.0
-0.603 -0.9553 -0.0988 11.0
-0.6078 -0.9593 -0.0994 11.0
-0.6147 -0.9597 -0.0997 11.0
-0.6099 -0.9485 -0.0987 11.0
-0.6094 -0.937 -0.0978 9.0
-0.6143 -0.9409 -0.0983 11.0
-0.6236 -0.9443 -0.099 9.0
-0.6231 -0.9399 -0.0987 9.0
-0.628 -0.9367 -0.0987 9.0
-0.6296 -0.9356 -0.0987 9.0
-0.6355 -0.934 -0.0988 7.0
-0.6405 -0.9378 -0.0994 7.0
-0.6488 -0.9394 -0.0999 7.0
-0.6515 -0.9399 -0.1001 7.0
-0.6645 -0.9479 -0.1013 7.0
-0.6776 -0.963 -0.103 7.0
-0.6847 -0.9628 -0.1034 7.0
-0.6864 -0.9616 -0.1034 7.0
-3.083 -4.2715 -0.4609 5.0
-3.0776 -4.2484 -0.459 10.0
-3.108 -4.2435 -0.4602 10.0
-3.1225 -4.2477 -0.4612 10.0
-3.1392 -4.2254 -0.4605 10.0
-3.1466 -4.2199 -0.4605 11.0
-0.547 -0.8666 0.1992 10.0
-0.5559 -0.8773 0.2019 11.0
-0.5686 -0.8878 0.2049 13.0
-0.5596 -0.8703 0.2011 12.0
-0.562 -0.864 0.2003 19.0
-0.5613 -0.8598 0.1996 26.0
-0.568 -0.8601 0.2003 32.0
-0.5651 -0.8526 0.1988 30.0
-0.5783 -0.8626 0.2019 25.0
-0.5722 -0.8502 0.1992 20.0
-0.5787 -0.8506 0.2 20.0
-0.5879 -0.8609 0.2026 19.0
-0.5969 -0.8643 0.2042 19.0
-0.5883 -0.8487 0.2007 22.0
-0.595 -0.8488 0.2015 33.0
-0.5897 -0.8381 0.1992 35.0
-0.5985 -0.8416 0.2007 36.0
-0.5977 -0.8373 0.2 31.0
-0.6032 -0.8358 0.2003 23.0
-0.5978 -0.8252 0.1981 21.0
-0.6009 -0.8204 0.1977 20.0
-0.6 -0.8162 0.1969 22.0
-0.6229 -0.8384 0.203 38.0
-0.6208 -0.8326 0.2019 47.0
-0.6023 -0.9543 -0.0591 8.0
-0.6019 -0.9498 -0.0589 8.0
-0.6086 -0.9502 -0.0591 8.0
-0.6168 -0.9593 -0.0598 8.0
-0.6218 -0.956 -0.0598 8.0
-0.6147 -0.9415 -0.0589 7.0
-0.6263 -0.9483 -0.0596 6.0
-0.6268 -0.9456 -0.0595 5.0
-0.6429 -0.9589 -0.0605 5.0
-0.6423 -0.9544 -0.0603 5.0
-0.6426 -0.9445 -0.0599 4.0
-0.6443 -0.9434 -0.0599 5.0
-0.6696 -0.9696 -0.0618 5.0
-0.6725 -0.9701 -0.0619 3.0
-3.9197 -5.5916 -0.3579 1.0
-3.8835 -5.5194 -0.3537 2.0
-3.9067 -5.4932 -0.3533 1.0
-3.9 -5.4636 -0.3518 5.0
-3.9391 -5.4577 -0.3527 5.0
-3.9522 -5.4557 -0.3531 3.0
-3.9925 -5.451 -0.3541 5.0
-4.0032 -5.4457 -0.3542 5.0
-4.0402 -5.4381 -0.355 6.0
-4.0664 -5.4535 -0.3565 13.0
-0.44 -0.6971 0.1903 19.0
-0.4412 -0.6963 0.1903 26.0
-0.4467 -0.6974 0.1912 28.0
-0.4437 -0.6901 0.1894 40.0
-0.4611 -0.709 0.1953 45.0
-0.4549 -0.6968 0.1921 54.0
-0.45 -0.6814 0.1885 47.0
-0.4501 -0.6789 0.1881 27.0
-0.4645 -0.6928 0.1926 22.0
-0.4657 -0.692 0.1926 18.0
-0.4637 -0.6815 0.1903 19.0
-0.4594 -0.6727 0.1881 20.0
-0.4607 -0.6671 0.1872 20.0
-0.4685 -0.6759 0.1899 26.0
-0.481 -0.6862 0.1935 27.0
-0.4799 -0.6821 0.1926 42.0
-0.4744 -0.667 0.189 60.0
-0.4755 -0.6662 0.189 60.0
-0.4813 -0.6668 0.1899 57.0
-0.4859 -0.6707 0.1912 49.0
-0.4871 -0.665 0.1903 35.0
-0.4836 -0.6579 0.1885 32.0
-0.4823 -0.6492 0.1867 27.0
-0.4927 -0.6608 0.1903 26.0
-0.6212 -0.9842 -0.0203 5.0
-0.6293 -0.9932 -0.0205 5.0
-0.6245 -0.975 -0.0202 5.0
-0.6197 -0.9638 -0.02 5.0
-0.6291 -0.9672 -0.0201 5.0
-0.6362 -0.9745 -0.0203 4.0
-0.6413 -0.9712 -0.0203 4.0
-0.6497 -0.98 -0.0205 5.0
-0.657 -0.98 -0.0206 4.0
-0.6788 -1.0087 -0.0212 4.0
-3.1732 -4.664 -0.0985 3.0
-3.1791 -4.6552 -0.0984 10.0
-3.1807 -4.6056 -0.0977 8.0
-3.1774 -4.5836 -0.0973 5.0
-3.1795 -4.5357 -0.0967 2.0
-0.5702 -0.8018 -0.0172 1.0
-0.5553 -0.778 -0.0167 3.0
-0.5547 -0.7686 -0.0165 9.0
-0.5561 -0.7676 -0.0165 11.0
-0.566 -0.7728 -0.0167 15.0
-0.5673 -0.7718 -0.0167 19.0
-0.5712 -0.7689 -0.0167 19.0
-0.5702 -0.7647 -0.0166 19.0
-0.3836 -0.6077 0.1926 100.0
-0.3867 -0.6103 0.1936 100.0
-0.3939 -0.6149 0.1957 100.0
-0.3887 -0.6045 0.1926 87.0
-0.3971 -0.6105 0.1951 80.0
-0.4066 -0.6228 0.1993 80.0
-0.4067 -0.6158 0.1977 61.0
-0.4184 -0.6312 0.2029 46.0
-0.4153 -0.6194 0.1998 48.0
-0.4174 -0.6202 0.2003 48.0
-0.4206 -0.6181 0.2003 44.0
-0.426 -0.6238 0.2024 42.0
-0.4271 -0.6184 0.2014 42.0
-0.4259 -0.6144 0.2003 44.0
-0.4225 -0.6027 0.1972 37.0
-0.4302 -0.6114 0.2003 24.0
-0.4311 -0.6061 0.1993 20.0
-0.431 -0.6038 0.1988 20.0
-0.4228 -0.5859 0.1936 21.0
-0.4227 -0.5836 0.1931 21.0
-0.4224 -0.5767 0.1915 30.0
-0.4257 -0.579 0.1926 35.0
-0.4366 -0.5877 0.1962 41.0
-0.4215 -0.5653 0.1889 45.0
-1.1699 -1.5519 -0.5207 9.0
-1.1772 -1.556 -0.5228 9.0
-1.1836 -1.5487 -0.5223 9.0
-1.1828 -1.542 -0.5207 8.0
-1.1781 -1.5188 -0.515 6.0
-0.8176 -1.0503 -0.3567 2.0
-0.8184 -1.0399 -0.3546 5.0
-0.8154 -1.0324 -0.3525 8.0
-0.8196 -1.0267 -0.352 9.0
-0.8153 -1.0177 -0.3494 9.0
-0.8166 -1.0092 -0.3479 8.0
-0.8342 -1.0272 -0.3546 5.0
-1.2245 -1.4917 -0.5171 6.0
-1.2344 -1.4985 -0.5202 7.0
-1.2386 -1.4876 -0.5187 7.0
-1.2449 -1.4899 -0.5202 7.0
-1.2589 -1.4907 -0.5228 7.0
-1.269 -1.4974 -0.5259 9.0
-1.2693 -1.4819 -0.5228 7.0
-1.2668 -1.4738 -0.5207 8.0
-1.2793 -1.4732 -0.5228 8.0
-1.2857 -1.4754 -0.5244 7.0
-1.2924 -1.4669 -0.5238 7.0
-1.2898 -1.4589 -0.5218 7.0
-3.2286 -4.2675 0.0934 78.0
-3.247 -4.2484 0.0933 77.0
-3.2508 -4.238 0.0932 79.0
-3.27 -4.2156 0.0931 84.0
-3.27 -4.2004 0.0929 80.0
-3.2882 -4.1786 0.0928 79.0
-3.2967 -4.1744 0.0928 80.0
-3.3223 -4.1617 0.093 76.0
-3.3208 -4.145 0.0927 73.0
-3.3347 -4.121 0.0925 76.0
-3.3432 -4.1167 0.0926 70.0
-3.3647 -4.0991 0.0926 73.0
-3.3718 -4.0933 0.0926 71.0
-3.3881 -4.0694 0.0924 73.0
-3.3913 -4.0589 0.0923 64.0
-3.4164 -4.0456 0.0924 38.0
-3.4299 -4.0473 0.0926 13.0
-0.8108 -0.9433 0.0217 1.0
-0.7945 -0.915 0.0212 4.0
-0.7961 -0.9136 0.0212 8.0
-0.8037 -0.9123 0.0212 12.0
-0.8093 -0.9154 0.0213 22.0
-1.3467 -1.7864 -0.5165 8.0
-1.3463 -1.7794 -0.5151 7.0
-1.3585 -1.7775 -0.5165 8.0
-1.3604 -1.7735 -0.516 7.0
-1.3736 -1.7708 -0.5174 7.0
-1.3778 -1.7699 -0.5178 7.0
-1.3787 -1.752 -0.5147 7.0
-0.8213 -1.0399 -0.3059 1.0
-0.8267 -1.0356 -0.3059 1.0
-0.8103 -1.0114 -0.2992 3.0
-0.8152 -1.0074 -0.2992 7.0
-0.8108 -0.9984 -0.2969 9.0
-0.8173 -0.9957 -0.2974 10.0
-0.8202 -0.9957 -0.2978 9.0
-0.8292 -0.9959 -0.2992 7.0
-0.8334 -0.9975 -0.3001 4.0
-1.4489 -1.7097 -0.5174 8.0
-1.4578 -1.7021 -0.5174 8.0
-1.4659 -1.7054 -0.5192 7.0
-1.4745 -1.698 -0.5192 8.0
-1.4736 -1.691 -0.5178 8.0
-1.4827 -1.683 -0.5178 9.0
-1.4883 -1.6833 -0.5187 8.0
-3.3423 -4.4337 0.291 18.0
-3.338 -4.412 0.2899 19.0
-3.3413 -4.3718 0.2884 21.0
-3.3404 -4.3549 0.2876 22.0
-3.3578 -4.3288 0.2871 24.0
-3.3568 -4.312 0.2864 30.0
-3.3719 -4.2849 0.2858 38.0
-3.3608 -4.2555 0.2842 34.0
-3.3843 -4.2394 0.2843 32.0
-3.3904 -4.2319 0.2842 29.0
-3.4085 -4.2122 0.284 10.0
-3.4373 -4.2326 0.2858 1.0
-3.4569 -4.2115 0.2855 3.0
-3.4922 -4.2393 0.2878 1.0
-3.5092 -4.2149 0.2874 1.0
-3.4692 -4.152 0.2836 5.0
-3.5385 -4.1903 0.2874 1.0
-0.8419 -0.983 0.0678 1.0
-0.8176 -0.9512 0.0657 1.0
-0.8041 -0.9259 0.0643 1.0
-0.8004 -0.9185 0.0638 6.0
-0.8014 -0.9097 0.0635 13.0
-0.8017 -0.9068 0.0634 21.0
-1.5517 -2.0584 -0.5011 6.0
-1.5671 -2.0714 -0.5049 6.0
-1.576 -2.0621 -0.5045 6.0
-1.5689 -2.0453 -0.5011 6.0
-1.5835 -2.0415 -0.5022 6.0
-1.5871 -2.0387 -0.5022 6.0
-1.605 -2.0396 -0.5045 6.0
-1.6086 -2.0368 -0.5045 6.0
-1.6168 -2.0253 -0.5037 6.0
-1.6129 -2.0133 -0.5014 5.0
-1.6314 -2.0161 -0.5041 4.0
-0.8114 -0.985 -0.2481 4.0
-0.8102 -0.9732 -0.2461 8.0
-0.8044 -0.9627 -0.2439 10.0
-0.8145 -0.9645 -0.2454 10.0
-0.8111 -0.9571 -0.2439 10.0
-0.8135 -0.9498 -0.2431 10.0
-0.8177 -0.9514 -0.2439 10.0
-0.829 -0.9546 -0.2458 10.0
-0.8281 -0.9502 -0.245 9.0
-0.8293 -0.9413 -0.2439 8.0
-0.8218 -0.9296 -0.2412 8.0
-23.5901 -31.1803 3.4207 9.0
-22.6025 -29.5735 3.2565 8.0
-22.0344 -28.4066 3.1453 7.0
-22.4218 -28.802 3.1934 8.0
-24.2011 -30.7541 3.4238 9.0
-21.6641 -27.4314 3.0581 7.0
-24.8381 -30.6944 3.4545 9.0
-22.4977 -27.7031 3.1223 7.0
-25.3349 -30.8652 3.4936 9.0
-4.5205 -5.4295 0.6181 5.0
-4.5763 -5.4191 0.6205 8.0
-0.8502 -1.0032 0.115 1.0
-0.8269 -0.9654 0.1112 1.0
-0.8026 -0.9338 0.1077 2.0
-0.7982 -0.9192 0.1065 4.0
-0.7985 -0.9163 0.1063 9.0
-0.8139 -0.9239 0.1077 13.0
-0.8063 -0.912 0.1065 23.0
-1.8895 -2.5065 -0.4971 6.0
-1.8914 -2.5 -0.4965 6.0
-1.9096 -2.4986 -0.4981 6.0
-1.9164 -2.4984 -0.4987 6.0
-1.9311 -2.4896 -0.499 6.0
-1.927 -2.4753 -0.4968 6.0
-1.9423 -2.4683 -0.4975 6.0
-1.9479 -2.4664 -0.4978 6.0
-1.9632 -2.4593 -0.4984 6.0
-1.97 -2.4589 -0.499 6.0
-1.9733 -2.4385 -0.4968 6.0
-1.9788 -2.4366 -0.4971 6.0
-1.994 -2.4293 -0.4978 6.0
-2.0058 -2.4349 -0.4997 5.0
-2.0134 -2.4183 -0.4984 1.0
-0.8271 -0.9899 -0.2043 1.0
-0.8068 -0.9553 -0.198 3.0
-0.8059 -0.9509 -0.1974 5.0
-0.8173 -0.9542 -0.199 11.0
-0.8189 -0.9528 -0.199 11.0
-0.8095 -0.9322 -0.1955 11.0
-0.8163 -0.9367 -0.1968 10.0
-0.8266 -0.9382 -0.198 5.0
-2.1 -2.3753 -0.5022 4.0
-0.9448 -1.2317 0.1906 1.0
-0.9514 -1.2266 0.1906 1.0
-0.9048 -1.1623 0.1809 1.0
-0.8876 -1.1279 0.1762 4.0
-0.9006 -1.1403 0.1784 7.0
-0.909 -1.1387 0.1789 10.0
-0.916 -1.1433 0.1799 12.0
-0.9303 -1.1496 0.1816 12.0
-0.9223 -1.1357 0.1796 14.0
-0.9307 -1.1339 0.1801 19.0
-0.9327 -1.1323 0.1801 21.0
-0.945 -1.135 0.1813 25.0
-0.9406 -1.1257 0.1801 27.0
-0.9388 -1.1117 0.1787 28.0
-0.933 -1.101 0.1772 29.0
-0.9465 -1.1051 0.1787 28.0
-0.9511 -1.1065 0.1791 21.0
-0.8942 -1.0297 0.1674 8.0
-0.7982 -0.9159 0.1492 10.0
-0.7978 -0.9056 0.1482 12.0
-0.7994 -0.9042 0.1482 18.0
-2.3767 -3.1529 -0.4848 3.0
-2.3882 -3.1566 -0.486 4.0
-2.3976 -3.137 -0.4848 7.0
-2.4031 -3.1329 -0.4848 7.0
-2.4175 -3.1167 -0.4843 8.0
-2.4279 -3.1187 -0.4853 7.0
-2.4417 -3.1028 -0.4848 8.0
-2.4373 -3.0861 -0.4828 9.0
-2.4583 -3.0795 -0.4838 7.0
-2.4674 -3.0799 -0.4846 7.0
-2.4837 -3.0693 -0.4848 8.0
-2.4978 -3.0758 -0.4865 7.0
-2.5 -3.0458 -0.4838 7.0
-2.5117 -3.0491 -0.485 7.0
-2.5289 -3.0374 -0.4853 7.0
-2.5405 -3.0406 -0.4865 7.0
-2.5602 -3.0318 -0.4872 3.0
-0.7945 -0.9243 -0.1497 2.0
-0.8044 -0.9263 -0.1506 6.0
-0.8021 -0.9204 -0.1499 10.0
-0.8044 -0.9131 -0.1494 10.0
-0.806 -0.9117 -0.1494 10.0
-0.7574 -1.0048 0.1993 10.0
-0.7544 -0.9972 0.198 11.0
-0.7641 -0.9998 0.1993 13.0
-0.7694 -1.0031 0.2002 17.0
-0.7749 -0.9989 0.2002 11.0
-0.7718 -0.9914 0.199 10.0
-0.7855 -0.9982 0.2012 10.0
-0.7799 -0.9875 0.1993 11.0
-0.7715 -0.9664 0.1959 11.0
-0.7818 -0.9759 0.198 12.0
-0.7915 -0.9782 0.1993 11.0
-0.7945 -0.9783 0.1996 11.0
-0.7908 -0.9635 0.1974 11.0
-0.7825 -0.9499 0.1949 11.0
-0.7887 -0.9473 0.1952 11.0
-0.7967 -0.9535 0.1968 12.0
-0.7978 -0.9448 0.1959 11.0
-0.7957 -0.9389 0.1949 11.0
-0.789 -0.9212 0.1921 12.0
-0.7893 -0.9183 0.1918 11.0
-0.7914 -0.9113 0.1912 11.0
-0.7929 -0.9099 0.1912 11.0
-0.8005 -0.9086 0.1918 11.0
-0.7877 -0.8909 0.1883 12.0
-3.1674 -4.2018 -0.4604 10.0
-3.1856 -4.2106 -0.4619 11.0
-3.2049 -4.1934 -0.4618 11.0
-3.2122 -4.1878 -0.4618 11.0
-3.2299 -4.164 -0.4611 12.0
-3.2409 -4.1631 -0.4616 10.0
-3.2713 -4.157 -0.4628 10.0
-3.2797 -4.1529 -0.463 11.0
-3.2977 -4.131 -0.4624 11.0
-3.3024 -4.1221 -0.4621 10.0
-3.3275 -4.1121 -0.4628 11.0
-3.3322 -4.1032 -0.4624 10.0
-3.365 -4.0996 -0.464 10.0
-3.3696 -4.0906 -0.4637 10.0
-3.377 -4.0561 -0.4618 10.0
-3.3968 -4.0654 -0.4635 10.0
-3.4142 -4.043 -0.463 6.0
-3.4354 -4.0538 -0.4649 3.0
-0.8086 -0.9312 -0.1079 1.0
-0.7867 -0.9027 -0.1048 7.0
-0.8008 -0.9089 -0.106 11.0
-0.8037 -0.909 -0.1062 11.0
-0.6228 -0.8262 0.2011 52.0
-0.6231 -0.8235 0.2007 56.0
-0.6307 -0.8252 0.2019 65.0
-0.6357 -0.8287 0.203 61.0
-0.6426 -0.8284 0.2038 61.0
-0.6307 -0.8102 0.1996 48.0
-0.6338 -0.8054 0.1992 49.0
-0.6425 -0.8135 0.2015 61.0
-0.6467 -0.8101 0.2015 59.0
-0.6481 -0.809 0.2015 59.0
-0.6484 -0.8012 0.2003 63.0
-0.6498 -0.8001 0.2003 65.0
-0.6589 -0.8028 0.2019 65.0
-0.6666 -0.8092 0.2038 61.0
-0.6633 -0.7966 0.2015 54.0
-0.6596 -0.7894 0.2 51.0
-0.6599 -0.7815 0.1988 52.0
-0.6702 -0.7908 0.2015 48.0
-0.6756 -0.7888 0.2019 46.0
-0.6808 -0.7921 0.203 43.0
-0.6784 -0.7812 0.2011 38.0
-0.6862 -0.7874 0.203 35.0
-0.6878 -0.7807 0.2023 24.0
-0.6918 -0.7825 0.203 20.0
-4.1057 -5.4465 -0.3575 17.0
-4.1128 -5.4361 -0.3572 8.0
-4.1636 -5.4477 -0.3593 2.0
-4.1852 -5.4563 -0.3604 1.0
-4.2343 -5.4588 -0.3621 1.0
-4.2291 -5.4325 -0.3608 1.0
-0.6841 -0.8569 -0.0575 1.0
-0.6331 -0.7903 -0.0531 1.0
-0.6357 -0.7856 -0.053 5.0
-0.6308 -0.7768 -0.0524 7.0
-0.6336 -0.7719 -0.0523 9.0
-0.6387 -0.7754 -0.0526 9.0
-0.6479 -0.7782 -0.0531 9.0
-0.6544 -0.7832 -0.0535 11.0
-0.6443 -0.763 -0.0523 11.0
-0.6521 -0.7695 -0.0529 11.0
-0.6678 -0.7797 -0.0538 11.0
-0.6783 -0.7891 -0.0545 12.0
-0.6757 -0.7781 -0.054 11.0
-0.6692 -0.7679 -0.0534 11.0
-0.6813 -0.7733 -0.054 13.0
-0.68 -0.7691 -0.0538 13.0
-0.5032 -0.6676 0.193 29.0
-0.5044 -0.6667 0.193 36.0
-0.5112 -0.6689 0.1944 51.0
-0.5053 -0.6587 0.1917 61.0
-0.516 -0.6652 0.1944 54.0
-0.5291 -0.6797 0.1989 48.0
-0.5303 -0.6738 0.198 51.0
-0.529 -0.6698 0.1971 42.0
-0.5349 -0.6701 0.198 25.0
-0.5495 -0.6859 0.2029 20.0
-0.5529 -0.6832 0.2029 18.0
-0.5504 -0.6777 0.2016 20.0
-0.5527 -0.6733 0.2011 22.0
-0.5551 -0.6738 0.2016 22.0
-0.5561 -0.6679 0.2007 28.0
-0.5635 -0.6744 0.2029 37.0
-0.5608 -0.664 0.2007 48.0
-0.5544 -0.6541 0.198 53.0
-0.559 -0.6527 0.1984 56.0
-0.5576 -0.6488 0.1975 61.0
-0.5686 -0.6548 0.2002 60.0
-0.5595 -0.642 0.1966 59.0
-0.5565 -0.6317 0.1944 58.0
-0.5654 -0.6395 0.1971 48.0
-0.5814 -0.7713 -0.0169 16.0
-0.5864 -0.775 -0.017 13.0
-0.5914 -0.7737 -0.017 13.0
-0.5903 -0.7695 -0.0169 18.0
-0.5993 -0.7727 -0.0171 16.0
-0.6056 -0.7779 -0.0172 15.0
-0.6158 -0.7826 -0.0174 12.0
-0.6085 -0.7705 -0.0171 15.0
-0.6101 -0.7642 -0.0171 13.0
-3.3283 -4.1544 -0.0929 12.0
-3.3347 -4.121 -0.0925 21.0
-3.3444 -4.1182 -0.0926 35.0
-3.3659 -4.1007 -0.0926 57.0
-3.3616 -4.0809 -0.0923 46.0
-3.3894 -4.0709 -0.0925 48.0
-3.3965 -4.065 -0.0925 42.0
-3.4125 -4.0411 -0.0923 19.0
-3.4235 -4.0397 -0.0924 7.0
-0.8065 -0.9416 -0.0216 1.0
-0.7821 -0.9099 -0.0209 1.0
-0.7945 -0.915 -0.0212 2.0
-0.8053 -0.9241 -0.0214 7.0
-0.8077 -0.9168 -0.0213 14.0
-0.8053 -0.9109 -0.0212 27.0
-0.4221 -0.56 0.1879 36.0
-0.4336 -0.5731 0.1926 26.0
-0.4364 -0.571 0.1926 21.0
-0.435 -0.5672 0.1915 21.0
-0.4251 -0.548 0.1858 23.0
-0.4296 -0.5518 0.1874 23.0
-0.442 -0.5617 0.1915 26.0
-0.4418 -0.5594 0.191 35.0
-0.4544 -0.5692 0.1951 42.0
-0.4397 -0.5488 0.1884 49.0
-0.446 -0.5511 0.19 49.0
-0.4506 -0.5549 0.1915 48.0
-0.4584 -0.5585 0.1936 46.0
-0.4532 -0.5502 0.191 48.0
-0.4499 -0.5404 0.1884 36.0
-0.4509 -0.5396 0.1884 31.0
-0.4612 -0.5461 0.1915 26.0
-0.4621 -0.5453 0.1915 30.0
-0.4599 -0.537 0.1895 31.0
-0.4558 -0.5303 0.1874 32.0
-0.4636 -0.5339 0.1895 36.0
-0.4747 -0.5447 0.1936 46.0
-0.4776 -0.5421 0.1936 46.0
-0.4786 -0.5413 0.1936 46.0
-1.2969 -1.4526 -0.5218 8.0
-1.3008 -1.4517 -0.5223 7.0
-1.3174 -1.4549 -0.5259 8.0
-1.3148 -1.4469 -0.5238 9.0
-1.3184 -1.4357 -0.5223 8.0
-1.317 -1.4292 -0.5207 8.0
-1.3268 -1.4253 -0.5218 8.0
-1.3319 -1.4258 -0.5228 8.0
-1.3513 -1.4315 -0.5275 10.0
-1.3512 -1.4263 -0.5264 13.0
-1.345 -1.4055 -0.5213 10.0
-1.3541 -1.4101 -0.5238 9.0
-1.3564 -1.3972 -0.5218 7.0
-1.3602 -1.3962 -0.5223 4.0
-1.3697 -1.3923 -0.5233 2.0
-1.3504 -1.3679 -0.515 2.0
-1.3657 -1.3691 -0.5182 1.0
-1.3462 -1.3448 -0.5099 2.0
-1.348 -1.3321 -0.5078 2.0
-1.3352 -1.3148 -0.5021 4.0
-1.3155 -1.2824 -0.4923 5.0
-1.3219 -1.2842 -0.4938 5.0
-1.3189 -1.2679 -0.4902 4.0
-1.3267 -1.2709 -0.4923 2.0
-0.8071 -0.9039 0.0212 31.0
-0.7993 -0.8921 0.0209 17.0
-0.812 -0.8968 0.0211 9.0
-3.5529 -3.9101 0.0922 21.0
-3.5869 -3.9062 0.0926 46.0
-3.5937 -3.8999 0.0926 52.0
-3.6161 -3.8846 0.0926 58.0
-3.6311 -3.887 0.0928 58.0
-3.6624 -3.8796 0.0931 60.0
-3.6801 -3.8848 0.0934 56.0
-3.7025 -3.869 0.0935 54.0
-3.7176 -3.8712 0.0937 54.0
-3.7496 -3.8625 0.094 54.0
-3.8593 -3.9231 0.0961 3.0
-3.8661 -3.9164 0.0961 3.0
-3.8837 -3.8932 0.096 3.0
-3.8905 -3.8865 0.096 3.0
-3.9215 -3.8752 0.0962 4.0
-3.9439 -3.8838 0.0966 3.0
-3.9606 -3.861 0.0965 3.0
-3.976 -3.8624 0.0968 3.0
-4.0192 -3.8637 0.0973 3.0
-4.0433 -3.8733 0.0977 3.0
-1.4991 -1.679 -0.5196 8.0
-1.4981 -1.672 -0.5183 8.0
-1.5042 -1.6612 -0.5174 7.0
-1.5071 -1.6586 -0.5174 7.0
-1.5276 -1.6636 -0.5214 8.0
-1.5252 -1.6552 -0.5196 8.0
-1.5309 -1.6446 -0.5187 9.0
-1.5245 -1.632 -0.5156 9.0
-1.5023 -1.5914 -0.5052 4.0
-1.426 -1.5053 -0.4787 3.0
-1.3675 -1.4291 -0.4567 2.0
-1.3984 -1.4562 -0.4661 1.0
-0.8431 -0.8654 -0.2789 1.0
-0.8282 -0.8419 -0.2726 2.0
-0.8379 -0.8487 -0.2753 3.0
-0.845 -0.8471 -0.2762 5.0
-0.8258 -0.825 -0.2695 5.0
-0.8358 -0.826 -0.2713 7.0
-0.8331 -0.8204 -0.2699 9.0
-0.8359 -0.8148 -0.2695 9.0
-0.8331 -0.8093 -0.2681 10.0
-0.8303 -0.7982 -0.2659 11.0
-0.8331 -0.7981 -0.2663 11.0
-0.8088 -0.9058 0.0636 36.0
-0.8077 -0.9014 0.0634 12.0
-0.8177 -0.9031 0.0638 10.0
-0.8247 -0.9076 0.0643 1.0
-3.7095 -4.0397 0.2874 1.0
-3.7165 -4.0332 0.2874 1.0
-3.7369 -4.0144 0.2874 1.0
-3.6866 -3.9465 0.283 2.0
-3.699 -3.9185 0.2824 31.0
-3.7223 -3.9294 0.2837 43.0
-3.7477 -3.9163 0.2841 49.0
-3.7711 -3.927 0.2853 48.0
-3.7951 -3.9094 0.2855 50.0
-3.8047 -3.9056 0.2858 48.0
-3.8322 -3.8956 0.2864 48.0
-3.8502 -3.9002 0.2872 47.0
-3.8762 -3.8857 0.2876 45.0
-3.8943 -3.8902 0.2885 45.0
-3.9153 -3.8691 0.2885 45.0
-3.9362 -3.8762 0.2895 42.0
-3.9715 -3.8716 0.2907 39.0
-3.9897 -3.8758 0.2915 36.0
-4.0172 -3.8618 0.292 32.0
-4.0383 -3.8686 0.2931 15.0
-0.8238 -0.9226 -0.2404 8.0
-0.8241 -0.9197 -0.24 7.0
-0.8315 -0.9183 -0.2408 7.0
-0.8318 -0.9154 -0.2404 7.0
-0.822 -0.8951 -0.2362 5.0
-0.8222 -0.8922 -0.2358 4.0
-0.824 -0.8852 -0.2351 3.0
-0.8282 -0.8866 -0.2358 1.0
-1.3438 -1.4042 -0.3778 3.0
-1.3571 -1.4132 -0.3809 1.0
-1.7289 -1.7747 -0.4816 1.0
-1.8091 -1.839 -0.5014 2.0
-1.7902 -1.8135 -0.4953 1.0
-1.3699 -1.3732 -0.377 2.0
-1.364 -1.3625 -0.3747 1.0
-1.3373 -1.3169 -0.3648 2.0
-1.3215 -1.2882 -0.3587 2.0
-1.3167 -1.2791 -0.3568 4.0
-1.3304 -1.2789 -0.3587 3.0
-0.8055 -0.9021 0.1058 20.0
-0.8137 -0.9081 0.1067 11.0
-0.8224 -0.9083 0.1072 6.0
-0.8495 -0.9349 0.1105 1.0
-4.2544 -4.0899 0.5163 1.0
-4.2731 -4.0934 0.5177 1.0
-2.1089 -2.362 -0.5015 6.0
-2.1025 -2.3466 -0.499 6.0
-2.1148 -2.3355 -0.499 6.0
-2.1202 -2.3333 -0.4993 6.0
-2.139 -2.3295 -0.5009 6.0
-2.1431 -2.3257 -0.5009 6.0
-2.1535 -2.3134 -0.5006 6.0
-2.1589 -2.3111 -0.5009 2.0
-1.3544 -1.4298 -0.3119 3.0
-1.363 -1.4243 -0.3122 4.0
-1.3436 -1.3991 -0.3072 4.0
-1.3402 -1.3805 -0.3047 4.0
-1.3357 -1.3711 -0.3032 5.0
-1.3354 -1.3575 -0.3016 4.0
-1.3336 -1.351 -0.3007 4.0
-1.3351 -1.3384 -0.2994 4.0
-1.3221 -1.3207 -0.296 4.0
-1.3278 -1.3121 -0.2957 5.0
-1.3329 -1.3126 -0.2963 5.0
-1.3268 -1.2934 -0.2935 5.0
-1.3177 -1.2801 -0.291 4.0
-1.3201 -1.269 -0.29 5.0
-1.3038 -1.249 -0.286 11.0
-0.8184 -0.9166 0.1509 20.0
-0.8239 -0.9196 0.1516 11.0
-0.8794 -0.9712 0.1609 9.0
-0.9612 -1.0578 0.1755 10.0
-0.9801 -1.0674 0.1779 9.0
-0.986 -1.07 0.1787 9.0
