# .PCD v0.7 - Point Cloud Data file format
VERSION 0.7
FIELDS x y z intensity
SIZE 4 4 4 4
TYPE F F F F
COUNT 1 1 1 1
WIDTH 1795
HEIGHT 1
VIEWPOINT 0 0 0 1 0 0 0
POINTS 1795
DATA ascii
1.003 4.9122 -0.7941 9.0
1.0296 4.9026 -0.7934 9.0
1.0381 4.9008 -0.7934 9.0
1.0629 4.8914 -0.7928 9.0
1.0732 4.8973 -0.7941 9.0
1.1001 4.8974 -0.795 13.0
1.1051 4.8801 -0.7925 9.0
1.1302 4.8723 -0.7922 9.0
1.141 4.8799 -0.7937 10.0
1.1679 4.8796 -0.7947 9.0
1.1727 4.8622 -0.7922 9.0
1.1963 4.8484 -0.7909 9.0
1.2081 4.8597 -0.7931 9.0
1.2338 4.8512 -0.7928 9.0
1.2423 4.849 -0.7928 9.0
1.2685 4.8422 -0.7928 11.0
1.276 4.8362 -0.7922 11.0
1.3013 4.8294 -0.7922 9.0
1.3097 4.8271 -0.7922 9.0
11.994 45.7836 5.8112 15.0
12.0557 45.6935 5.8024 31.0
12.1264 45.0049 5.723 15.0
12.0573 44.4396 5.6538 14.0
1.196 6.366 -0.7953 13.0
1.2097 6.3775 -0.797 13.0
1.2419 6.3653 -0.7963 12.0
1.2507 6.3514 -0.7948 13.0
1.2832 6.3409 -0.7943 13.0
1.2966 6.3503 -0.7958 13.0
1.3345 6.3546 -0.7973 13.0
1.3423 6.3367 -0.7953 13.0
1.3742 6.3238 -0.7946 13.0
1.3844 6.3175 -0.7941 13.0
1.4205 6.3238 -0.7958 13.0
1.4333 6.329 -0.7968 12.0
1.4641 6.3117 -0.7956 13.0
1.4738 6.3034 -0.7948 12.0
1.5072 6.2975 -0.7951 13.0
1.5168 6.2891 -0.7943 13.0
1.5521 6.2907 -0.7956 13.0
1.5645 6.2937 -0.7963 12.0
1.5937 6.266 -0.7939 12.0
1.6076 6.2747 -0.7953 12.0
1.6425 6.2698 -0.7958 13.0
1.6545 6.2707 -0.7963 12.0
1.6867 6.26 -0.7961 13.0
1.694 6.2437 -0.7943 13.0
1.6951 9.0231 -0.8032 10.0
1.7116 9.024 -0.8036 9.0
1.7596 9.0188 -0.8039 9.0
1.7769 9.0236 -0.8046 12.0
1.8265 9.0259 -0.8057 10.0
1.8399 9.011 -0.8046 9.0
1.8901 9.0005 -0.8046 10.0
1.9075 9.005 -0.8053 9.0
1.9567 9.0046 -0.8062 12.0
1.9695 8.9876 -0.805 10.0
2.0152 8.9713 -0.8044 9.0
2.0331 8.9775 -0.8053 10.0
2.0818 8.9745 -0.806 10.0
2.0984 8.9747 -0.8064 10.0
2.1435 8.9559 -0.8057 10.0
2.1559 8.9386 -0.8044 9.0
2.206 8.9407 -0.8057 9.0
2.2264 8.9562 -0.8074 10.0
2.2709 8.9285 -0.806 10.0
2.2874 8.9284 -0.8064 10.0
2.3307 8.8966 -0.8046 9.0
2.3492 8.9041 -0.8057 9.0
2.3964 8.8936 -0.8058 9.0
2.4166 8.9067 -0.8074 10.0
2.9505 15.7053 -0.8375 10.0
2.9764 15.6923 -0.8371 12.0
3.0517 15.6412 -0.8352 9.0
3.0813 15.6476 -0.8358 11.0
3.16 15.6156 -0.835 11.0
3.1849 15.5983 -0.8343 11.0
3.2744 15.592 -0.835 11.0
3.2975 15.5667 -0.8339 11.0
3.373 15.5219 -0.8325 9.0
3.3984 15.5082 -0.832 11.0
3.4769 15.4785 -0.8314 9.0
3.503 15.4685 -0.8312 9.0
3.5785 15.4266 -0.8299 11.0
3.6036 15.4126 -0.8295 9.0
3.6824 15.3857 -0.8291 9.0
3.7027 15.3521 -0.8276 9.0
3.784 15.3364 -0.8279 9.0
3.8088 15.322 -0.8274 11.0
3.8966 15.3205 -0.8285 11.0
3.9214 15.306 -0.8281 11.0
4.0112 15.3116 -0.8295 9.0
4.0369 15.3007 -0.8293 11.0
4.1138 15.2678 -0.8287 9.0
4.1436 15.2721 -0.8293 9.0
0.7853 2.8375 -0.7889 9.0
0.7882 2.8287 -0.7868 9.0
0.8051 2.8319 -0.7889 9.0
0.8106 2.8324 -0.7894 9.0
0.828 2.8334 -0.791 8.0
0.8313 2.8264 -0.7894 9.0
0.8455 2.8181 -0.7884 9.0
0.8498 2.8148 -0.7878 8.0
0.8657 2.814 -0.7889 8.0
0.8695 2.8088 -0.7878 8.0
0.8847 2.806 -0.7884 8.0
0.8873 2.7971 -0.7863 8.0
0.9039 2.8019 -0.7889 9.0
0.9076 2.7967 -0.7878 8.0
0.9229 2.7937 -0.7884 8.0
0.9296 2.7976 -0.7899 9.0
0.9399 2.7799 -0.7863 9.0
0.946 2.7819 -0.7873 9.0
0.9637 2.7861 -0.7899 9.0
0.9692 2.7862 -0.7904 9.0
0.9825 2.7774 -0.7894 9.0
0.9815 2.7593 -0.7847 8.0
0.9985 2.7614 -0.7868 10.0
1.006 2.7669 -0.7889 9.0
13.0098 47.0075 0.8514 13.0
12.8037 43.5312 0.792 11.0
12.9528 43.174 0.7868 11.0
12.8594 42.5923 0.7766 11.0
12.9317 42.0351 0.7677 11.0
12.8659 39.6442 0.7275 10.0
12.7332 37.4463 0.6904 9.0
12.8297 37.0919 0.6851 8.0
12.746 36.6426 0.6772 8.0
12.7963 36.1757 0.6698 8.0
12.7401 35.8179 0.6636 8.0
12.8146 35.4385 0.6578 8.0
12.8641 35.3823 0.6572 8.0
0.9143 3.3036 -0.7914 7.0
0.9227 3.3114 -0.7936 7.0
0.9395 3.3047 -0.7932 8.0
0.942 3.2918 -0.7905 8.0
0.9615 3.2902 -0.7914 9.0
0.9678 3.2904 -0.7918 7.0
0.985 3.2833 -0.7914 7.0
0.9913 3.2834 -0.7918 7.0
1.0056 3.2688 -0.7896 8.0
1.0108 3.2652 -0.7891 7.0
1.0296 3.2655 -0.7905 8.0
1.0388 3.2748 -0.7932 8.0
1.0512 3.2586 -0.7905 6.0
1.0557 3.253 -0.7896 6.0
1.0715 3.2437 -0.7887 6.0
1.0802 3.2511 -0.7909 7.0
1.1004 3.2546 -0.7932 8.0
1.1048 3.249 -0.7923 8.0
1.118 3.2322 -0.7896 8.0
1.1223 3.2265 -0.7887 6.0
1.1418 3.2279 -0.7905 6.0
1.1501 3.2333 -0.7923 8.0
1.1663 3.2254 -0.7918 8.0
1.1679 3.2124 -0.7891 11.0
13.068 47.2178 2.5676 22.0
13.1869 47.3257 2.5747 22.0
13.4541 47.3252 2.5785 22.0
12.8246 44.8131 2.4428 19.0
12.9746 44.1124 2.4098 19.0
13.2177 44.0568 2.4106 19.0
12.8732 42.6379 2.3342 53.0
13.135 42.6959 2.3411 17.0
13.2851 42.9172 2.3545 18.0
13.4243 42.5765 2.3396 35.0
11.8496 36.731 2.0227 38.0
11.9112 36.7026 2.0223 12.0
12.1033 36.6398 2.0223 12.0
13.253 39.1994 2.1686 14.0
13.0295 38.3178 2.1211 13.0
12.9962 37.5733 2.0836 13.0
12.4935 35.9169 1.993 12.0
12.6921 35.8811 1.9946 12.0
12.7065 35.7235 1.9871 12.0
12.7222 35.1831 1.9607 24.0
12.9706 35.6752 1.9894 37.0
1.0782 3.8959 -0.7858 9.0
1.084 3.8902 -0.785 9.0
1.1043 3.8845 -0.785 10.0
1.1143 3.8939 -0.7873 10.0
1.135 3.8838 -0.7865 8.0
1.1357 3.8611 -0.7823 9.0
1.1605 3.8681 -0.785 9.0
1.1672 3.8661 -0.785 9.0
1.1898 3.8674 -0.7865 9.0
1.1954 3.8616 -0.7858 9.0
1.2126 3.8459 -0.7838 9.0
1.2187 3.8419 -0.7835 11.0
1.2411 3.8471 -0.7858 8.0
1.249 3.8487 -0.7865 9.0
1.2673 3.8365 -0.7854 9.0
1.2721 3.8287 -0.7842 9.0
1.2928 3.8238 -0.7846 9.0
1.302 3.829 -0.7861 9.0
1.3214 3.8203 -0.7858 9.0
1.3293 3.8217 -0.7865 11.0
1.3448 3.8017 -0.7838 9.0
1.3507 3.7975 -0.7835 9.0
1.3726 3.7959 -0.7846 9.0
1.3826 3.8027 -0.7865 9.0
11.993 43.3333 3.9337 23.0
12.09 43.3891 3.9407 23.0
12.2854 43.214 3.9305 11.0
12.318 43.0431 3.917 23.0
12.5325 42.8856 3.9089 23.0
12.6456 42.9937 3.9208 11.0
12.8975 42.9895 3.9267 11.0
13.1452 43.5392 3.979 11.0
11.8112 38.3928 3.5143 9.0
12.2994 39.0087 3.5784 10.0
13.8314 43.6021 4.002 12.0
13.7128 42.5062 3.9075 11.0
12.6897 39.1014 3.5966 20.0
12.8405 38.8717 3.5816 20.0
12.9435 38.9551 3.5913 10.0
14.0573 41.5783 3.8399 22.0
11.0209 32.4107 2.995 28.0
11.1956 32.3676 2.9964 28.0
14.5178 41.7363 3.8661 11.0
14.9939 42.3885 3.9337 11.0
11.5713 32.0002 2.9771 13.0
11.7394 32.2889 3.0058 28.0
1.3357 4.8262 -0.7931 10.0
1.3446 4.8257 -0.7934 9.0
1.3677 4.811 -0.7922 9.0
1.3756 4.8067 -0.7919 10.0
1.403 4.8009 -0.7922 9.0
1.413 4.8041 -0.7931 10.0
1.4401 4.8002 -0.7937 9.0
1.4445 4.7844 -0.7916 9.0
1.4695 4.7768 -0.7916 9.0
1.4773 4.7723 -0.7912 9.0
1.5064 4.7777 -0.7934 11.0
1.5135 4.7713 -0.7928 13.0
1.5344 4.7563 -0.7916 9.0
1.5433 4.7555 -0.7919 9.0
1.5688 4.7492 -0.7922 12.0
1.5802 4.7559 -0.7937 10.0
1.6045 4.7457 -0.7934 9.0
1.6096 4.7335 -0.7919 9.0
1.6337 4.7231 -0.7916 9.0
1.6432 4.724 -0.7922 10.0
1.6693 4.7191 -0.7928 9.0
1.6788 4.7199 -0.7934 9.0
1.6988 4.698 -0.7912 9.0
1.7063 4.6932 -0.7909 9.0
12.2736 44.3473 5.6499 29.0
12.5353 44.9875 5.7342 15.0
12.2605 43.1264 5.5051 42.0
12.8076 44.7538 5.7157 15.0
11.1413 38.1251 4.877 43.0
11.2062 38.0999 4.8762 43.0
12.0659 40.2177 5.1556 12.0
11.3879 37.7185 4.8377 31.0
11.9903 38.9751 5.0069 11.0
11.9174 38.499 4.9484 11.0
11.0933 35.1835 4.5296 40.0
11.1397 35.1168 4.5235 40.0
11.3045 35.0412 4.5209 30.0
12.4196 38.269 4.9401 11.0
11.659 35.295 4.564 40.0
11.4753 34.5362 4.4685 39.0
11.6496 34.4568 4.466 39.0
11.8088 34.7277 4.5038 20.0
11.8133 34.1533 4.4373 39.0
11.8924 34.1888 4.4446 39.0
12.2904 34.7456 4.5253 10.0
12.3909 34.8363 4.5399 10.0
12.3524 34.1605 4.4602 39.0
12.6135 34.6929 4.5326 10.0
1.7256 6.235 -0.7943 12.0
1.7386 6.2397 -0.7953 13.0
1.7718 6.2324 -0.7956 13.0
1.7849 6.2369 -0.7965 13.0
1.8141 6.2078 -0.7941 13.0
1.8261 6.2084 -0.7946 13.0
1.8625 6.208 -0.7958 13.0
1.8756 6.2123 -0.7968 13.0
1.9046 6.191 -0.7953 12.0
1.9148 6.1858 -0.7951 13.0
1.946 6.1719 -0.7946 13.0
1.9604 6.1798 -0.7961 13.0
1.9918 6.174 -0.7965 13.0
2.0001 6.1629 -0.7956 13.0
2.028 6.1392 -0.7939 13.0
2.0437 6.1507 -0.7958 13.0
2.0765 6.1418 -0.7961 13.0
2.0898 6.1457 -0.797 13.0
2.12 6.129 -0.7963 13.0
2.1254 6.1103 -0.7943 13.0
2.1581 6.101 -0.7946 13.0
2.1714 6.1047 -0.7956 13.0
2.2047 6.097 -0.7961 13.0
2.2167 6.0968 -0.7965 13.0
11.6564 37.6558 6.2433 42.0
11.8499 37.5829 6.2414 42.0
11.9083 37.5396 6.2377 42.0
12.077 37.4358 6.2302 42.0
12.0923 37.2606 6.2045 41.0
12.3542 37.3994 6.2383 42.0
12.3061 37.0366 6.1814 41.0
12.5277 37.054 6.1951 41.0
11.7541 34.5671 5.7828 36.0
11.9556 34.5648 5.7928 36.0
12.0276 34.5775 5.7984 37.0
12.1031 34.2161 5.7483 54.0
12.1628 34.1949 5.7483 36.0
12.6386 34.9518 5.8866 19.0
12.6699 34.848 5.8729 37.0
2.4637 8.9021 -0.8081 10.0
2.4713 8.869 -0.8055 12.0
2.5204 8.8655 -0.8064 10.0
2.5342 8.8553 -0.8058 9.0
2.5864 8.8506 -0.8067 9.0
2.6002 8.8403 -0.8062 9.0
2.6474 8.8242 -0.806 9.0
2.6588 8.8062 -0.8048 9.0
2.7048 8.7922 -0.8048 9.0
2.7243 8.8008 -0.806 9.0
2.7668 8.775 -0.805 10.0
2.779 8.7607 -0.8041 9.0
2.8206 8.7432 -0.8038 9.0
2.8414 8.7553 -0.8053 9.0
2.8847 8.7327 -0.8046 9.0
2.8968 8.7182 -0.8038 9.0
2.9399 8.6954 -0.8031 9.0
2.9512 8.6789 -0.802 9.0
2.9998 8.6728 -0.8029 9.0
3.0169 8.6732 -0.8034 9.0
3.0596 8.6498 -0.8027 9.0
3.0681 8.6256 -0.801 9.0
3.1132 8.6095 -0.801 9.0
3.133 8.6171 -0.8022 9.0
12.6803 37.5054 7.6957 12.0
12.7508 37.4981 7.6988 25.0
12.9906 37.557 7.7247 12.0
4.2198 15.2471 -0.8291 11.0
4.2539 15.2667 -0.8306 11.0
4.3349 15.248 -0.8308 9.0
4.356 15.2212 -0.8297 11.0
4.4376 15.1852 -0.8291 9.0
4.4641 15.1774 -0.8291 11.0
4.5473 15.1569 -0.8293 9.0
4.5714 15.1412 -0.8289 11.0
4.6471 15.1057 -0.8283 11.0
4.6782 15.1128 -0.8291 11.0
4.7609 15.0995 -0.8297 9.0
4.7812 15.0721 -0.8287 9.0
4.8535 15.0448 -0.8285 9.0
4.8712 15.0097 -0.827 9.0
4.9522 14.9916 -0.8274 9.0
4.9771 14.9791 -0.8272 9.0
5.0567 14.9566 -0.8274 9.0
5.079 14.9364 -0.8268 9.0
5.1558 14.9059 -0.8266 9.0
5.1818 14.8968 -0.8266 11.0
5.2544 14.8544 -0.8258 9.0
5.279 14.8415 -0.8255 11.0
5.3566 14.8136 -0.8255 11.0
5.4009 14.855 -0.8284 19.0
11.101 30.6996 -0.5698 4.0
11.1149 30.5712 -0.5678 4.0
1.0214 2.7613 -0.7889 9.0
1.0276 2.7631 -0.7899 11.0
1.0361 2.7434 -0.7858 9.0
1.0423 2.7452 -0.7868 8.0
1.058 2.7433 -0.7878 8.0
1.0621 2.7397 -0.7873 8.0
1.0762 2.7321 -0.7868 8.0
1.081 2.7302 -0.7868 8.0
1.0941 2.7229 -0.7863 9.0
1.0988 2.721 -0.7863 8.0
1.1152 2.7206 -0.7878 8.0
1.1229 2.7258 -0.7899 9.0
1.1275 2.6967 -0.7832 8.0
1.1337 2.6983 -0.7842 8.0
1.1539 2.7065 -0.7884 8.0
1.1609 2.7098 -0.7899 11.0
1.1717 2.6946 -0.7873 10.0
1.1748 2.6891 -0.7863 10.0
1.1908 2.6884 -0.7878 9.0
1.1939 2.6828 -0.7868 9.0
1.2128 2.6848 -0.7894 9.0
1.2119 2.6704 -0.7858 8.0
1.2243 2.6605 -0.7847 8.0
1.2297 2.6601 -0.7853 9.0
12.8534 34.7472 0.6467 7.0
12.7788 34.3611 0.6399 7.0
12.8565 34.0416 0.6352 7.0
12.8023 33.72 0.6296 7.0
12.8191 33.0667 0.619 7.0
12.9275 32.8183 0.6157 7.0
12.917 32.6246 0.6125 6.0
12.9835 32.3139 0.6079 6.0
12.8857 31.9092 0.6007 6.0
12.9358 31.5564 0.5953 6.0
12.9101 31.3377 0.5916 6.0
12.9058 30.8675 0.584 6.0
12.8481 30.5795 0.579 24.0
12.9171 30.2984 0.5749 11.0
12.8298 29.9486 0.5687 11.0
12.8832 29.6294 0.564 5.0
12.8436 29.3979 0.56 5.0
12.8433 28.9961 0.5536 5.0
12.7361 28.6192 0.5468 20.0
12.8414 28.4274 0.5445 20.0
12.772 28.1427 0.5395 10.0
12.7838 27.7812 0.5338 9.0
12.7366 27.5519 0.5298 19.0
1.1825 3.1967 -0.7869 9.0
1.1935 3.2092 -0.7905 9.0
1.2118 3.2086 -0.7918 8.0
1.216 3.2028 -0.7909 7.0
1.2292 3.1873 -0.7887 8.0
1.2348 3.1852 -0.7887 8.0
1.2534 3.1821 -0.7896 8.0
1.264 3.1926 -0.7927 8.0
1.2773 3.1789 -0.7909 8.0
1.2762 3.1604 -0.7869 7.0
1.2979 3.1663 -0.79 11.0
1.3042 3.1658 -0.7905 15.0
1.3223 3.1625 -0.7914 11.0
1.3263 3.1566 -0.7905 9.0
1.339 3.1407 -0.7882 8.0
1.3452 3.1401 -0.7887 11.0
1.3645 3.1382 -0.79 10.0
1.3708 3.1376 -0.7905 8.0
1.3835 3.1235 -0.7887 6.0
1.3905 3.1246 -0.7896 8.0
1.4079 3.1168 -0.7896 8.0
1.4142 3.1161 -0.79 8.0
1.4329 3.114 -0.7914 8.0
1.4359 3.1062 -0.79 8.0
12.8966 34.8641 1.9482 24.0
12.0733 32.4641 1.8152 23.0
12.2361 32.3989 1.815 11.0
12.2444 32.2505 1.8079 11.0
12.4677 32.3276 1.8158 11.0
12.514 32.2797 1.8144 11.0
12.5552 31.8733 1.7953 11.0
12.1065 30.5774 1.7235 11.0
12.2923 30.5936 1.7279 11.0
12.3562 30.598 1.7294 11.0
12.9086 31.4902 1.7836 11.0
12.994 31.5415 1.7878 22.0
12.7214 30.4264 1.7283 11.0
14.7148 35.0222 1.9909 12.0
12.9962 30.4838 1.7367 11.0
13.0257 30.406 1.7336 11.0
13.1295 30.1959 1.7256 22.0
13.291 30.4218 1.7399 11.0
12.3755 27.94 1.6015 10.0
12.3674 27.7906 1.5942 31.0
12.5438 27.7684 1.5969 10.0
13.6471 30.0708 1.7306 11.0
12.6872 27.5713 1.5906 10.0
12.6297 27.3207 1.5774 41.0
1.4004 3.7857 -0.7846 9.0
1.4056 3.7796 -0.7838 9.0
1.4206 3.7614 -0.7816 9.0
1.4355 3.781 -0.7861 9.0
1.4532 3.7679 -0.785 9.0
1.4626 3.7727 -0.7865 9.0
1.4772 3.7501 -0.7835 9.0
1.4845 3.7493 -0.7838 9.0
1.5042 3.7436 -0.7842 9.0
1.5144 3.7501 -0.7861 9.0
1.531 3.7348 -0.7846 9.0
1.536 3.7285 -0.7838 12.0
1.5555 3.7204 -0.7838 9.0
1.5635 3.7213 -0.7846 11.0
1.5861 3.7203 -0.7861 12.0
1.5903 3.7121 -0.785 11.0
1.6095 3.7017 -0.7846 12.0
1.6152 3.6971 -0.7842 9.0
1.6355 3.6924 -0.785 9.0
1.6443 3.6949 -0.7861 9.0
1.6625 3.6803 -0.785 9.0
1.6641 3.6667 -0.7827 9.0
1.6849 3.6615 -0.7835 9.0
1.6954 3.6675 -0.7854 9.0
11.8263 31.9706 2.9823 13.0
11.8793 31.9424 2.9816 13.0
12.0253 31.8409 2.9778 6.0
12.1205 31.9241 2.9875 20.0
11.9921 31.0944 2.9157 13.0
12.1054 31.2257 2.93 13.0
12.2486 31.0949 2.9239 26.0
12.1994 30.8122 2.8993 12.0
12.0135 29.8997 2.8191 12.0
12.1015 29.9673 2.8275 12.0
12.3882 30.2207 2.8575 12.0
12.4319 30.1769 2.8554 12.0
12.7772 30.5599 2.8979 12.0
12.5203 29.7991 2.8279 12.0
13.4622 31.5769 3.0032 14.0
12.5193 29.2238 2.7815 5.0
12.686 29.1758 2.7834 23.0
13.8895 31.7918 3.0353 7.0
13.1691 29.7318 2.8449 12.0
14.3778 32.3081 3.0939 7.0
14.138 31.2977 3.0046 21.0
13.8369 30.4892 2.9293 6.0
13.9048 30.2172 2.9101 13.0
17.019 36.8156 3.5485 9.0
1.7353 4.691 -0.7922 9.0
1.7476 4.6991 -0.7941 11.0
1.7706 4.6883 -0.7937 13.0
1.7725 4.6686 -0.7909 9.0
1.7983 4.6629 -0.7916 10.0
1.8093 4.6672 -0.7928 13.0
1.8404 4.672 -0.7953 13.0
1.8398 4.6467 -0.7916 9.0
1.8633 4.6374 -0.7916 9.0
1.8758 4.6451 -0.7934 13.0
1.9001 4.6352 -0.7934 9.0
1.9059 4.6264 -0.7925 10.0
1.9324 4.6218 -0.7934 9.0
1.9366 4.6094 -0.7919 9.0
1.9608 4.5992 -0.7919 9.0
1.9696 4.5975 -0.7922 9.0
1.9952 4.5886 -0.7925 9.0
2.0056 4.5906 -0.7934 9.0
2.0264 4.5749 -0.7925 9.0
2.0376 4.5786 -0.7937 13.0
2.0623 4.5654 -0.7934 11.0
2.0711 4.5636 -0.7937 10.0
2.0933 4.5491 -0.7931 10.0
2.1004 4.5436 -0.7928 11.0
11.712 31.6617 4.145 9.0
13.2079 35.515 4.6525 20.0
12.9947 34.4077 4.516 30.0
13.6198 35.8734 4.7115 10.0
13.5075 35.0237 4.6091 30.0
12.3516 31.8609 4.1957 9.0
12.593 31.9691 4.2189 38.0
13.7895 34.8282 4.5993 10.0
13.9937 34.828 4.6086 30.0
14.5599 36.0551 4.7744 10.0
14.2305 34.7147 4.6067 20.0
14.3137 34.7449 4.614 20.0
14.1585 33.8636 4.5067 10.0
14.4237 34.3293 4.5721 20.0
14.5721 34.1803 4.5623 20.0
14.4441 33.7169 4.5038 30.0
14.6271 33.6401 4.504 40.0
14.9044 34.1147 4.5711 10.0
15.2979 34.538 4.6381 20.0
16.5285 37.141 4.9915 11.0
17.3011 38.3 5.1602 12.0
15.5205 34.1989 4.6113 20.0
15.4952 33.6735 4.5513 10.0
2.2458 6.0713 -0.7948 13.0
2.2571 6.0692 -0.7951 13.0
2.2913 6.067 -0.7963 13.0
2.3019 6.063 -0.7963 13.0
2.3351 6.0546 -0.7968 13.0
2.3413 6.0394 -0.7953 13.0
2.3761 6.0322 -0.7961 13.0
2.3881 6.0317 -0.7965 13.0
2.4201 6.0232 -0.797 13.0
2.4343 6.0282 -0.7982 13.0
2.4598 6.0007 -0.7963 13.0
2.4575 5.9652 -0.7922 13.0
2.4986 5.976 -0.7953 13.0
2.5183 5.9936 -0.7982 13.0
2.5496 5.9804 -0.7982 13.0
2.553 5.9595 -0.7961 13.0
2.586 5.9474 -0.7963 13.0
2.5996 5.9502 -0.7973 13.0
2.6321 5.9424 -0.798 13.0
2.6416 5.936 -0.7978 12.0
2.6674 5.9048 -0.7956 13.0
2.6801 5.9056 -0.7963 12.0
2.7135 5.8969 -0.797 13.0
2.7246 5.8939 -0.7973 13.0
12.6327 34.1505 5.7671 54.0
12.7666 34.3284 5.8009 37.0
13.7582 36.4292 6.1676 20.0
13.0182 34.2887 5.809 37.0
14.2254 36.8851 6.2614 42.0
14.2883 36.8566 6.2608 21.0
14.6526 37.1978 6.3322 21.0
14.6637 37.0362 6.309 21.0
14.9555 37.2218 6.3534 21.0
14.7882 36.6205 6.2552 21.0
15.0442 36.6998 6.2821 21.0
15.1729 36.8305 6.309 21.0
15.2269 36.4189 6.2521 21.0
15.2889 36.3886 6.2514 42.0
15.7318 36.9004 6.3534 21.0
15.9766 37.2942 6.426 21.0
16.2364 37.3413 6.4492 22.0
16.7176 38.265 6.6137 22.0
16.4326 37.0998 6.4266 22.0
17.0371 38.2839 6.6369 22.0
14.222 30.9067 5.3885 16.0
14.2594 30.846 5.3823 16.0
3.1845 8.6088 -0.8031 9.0
3.1954 8.592 -0.802 9.0
3.2339 8.5627 -0.8008 9.0
3.2467 8.5515 -0.8003 9.0
3.2936 8.5399 -0.8008 9.0
3.3092 8.536 -0.801 9.0
3.3524 8.5106 -0.8003 9.0
3.3658 8.501 -0.7999 9.0
3.4058 8.4765 -0.7992 9.0
3.4228 8.4761 -0.7997 9.0
3.4641 8.4506 -0.799 12.0
3.4812 8.4501 -0.7996 9.0
3.5192 8.4171 -0.7982 9.0
3.5354 8.4146 -0.7985 9.0
3.5826 8.4033 -0.7992 9.0
3.5941 8.3897 -0.7985 9.0
3.641 8.3738 -0.7989 9.0
3.6556 8.3674 -0.7989 9.0
3.6963 8.3452 -0.7985 9.0
3.7157 8.3496 -0.7996 9.0
3.7656 8.336 -0.8003 9.0
3.7769 8.3222 -0.7996 9.0
3.8204 8.3023 -0.7996 9.0
3.8349 8.2956 -0.7996 9.0
14.5418 38.3016 7.9636 14.0
14.3348 36.9764 7.7087 12.0
14.4569 36.701 7.6675 12.0
14.3807 36.3216 7.5934 24.0
14.5819 36.292 7.6026 24.0
14.6173 36.1974 7.5881 12.0
14.8647 36.262 7.6179 12.0
15.462 37.5321 7.8903 14.0
15.584 37.2731 7.8529 27.0
15.4513 36.7753 7.7537 13.0
15.6129 36.6216 7.7384 26.0
15.6861 36.616 7.743 13.0
14.204 32.6669 6.9241 10.0
16.3014 37.3124 7.9148 14.0
16.4598 37.1612 7.9003 14.0
16.4544 36.9745 7.8667 13.0
16.6526 36.8642 7.8629 13.0
16.5952 36.5669 7.8056 13.0
5.4699 14.7871 -0.8263 61.0
5.4783 14.7307 -0.8237 100.0
5.5408 14.671 -0.8219 85.0
5.5721 14.6763 -0.8227 19.0
5.6323 14.6041 -0.8203 11.0
5.6794 14.6501 -0.8235 9.0
5.7572 14.6154 -0.8232 9.0
5.793 14.6313 -0.8247 9.0
5.864 14.5944 -0.8243 9.0
5.8864 14.5768 -0.8239 9.0
5.9627 14.5457 -0.8239 9.0
5.9835 14.5242 -0.8232 9.0
6.0656 14.5074 -0.8241 9.0
6.0925 14.5005 -0.8243 9.0
6.1652 14.4611 -0.8239 9.0
6.1888 14.4466 -0.8237 9.0
6.2653 14.4092 -0.8235 9.0
6.2985 14.4166 -0.8245 9.0
6.3681 14.3772 -0.8241 9.0
6.3867 14.3515 -0.8232 9.0
6.4684 14.3192 -0.8235 11.0
6.4967 14.3152 -0.8239 11.0
6.5799 14.2991 -0.8249 9.0
6.5998 14.2767 -0.8243 11.0
11.291 30.5236 -0.5681 4.0
11.3791 30.5976 -0.5698 4.0
11.8001 31.0803 -0.5803 4.0
11.8547 30.7382 -0.5751 4.0
11.7999 30.4378 -0.5698 4.0
11.8692 30.1316 -0.5653 4.0
11.8157 29.8431 -0.5603 4.0
11.8548 29.5046 -0.555 4.0
11.8029 29.228 -0.5502 4.0
11.8648 28.9438 -0.546 4.0
11.8193 28.6901 -0.5416 4.0
11.8521 28.3473 -0.5363 3.0
11.8055 28.098 -0.532 3.0
11.8709 27.8445 -0.5284 3.0
11.3101 24.4662 -0.4705 3.0
1.2469 2.6607 -0.7873 8.0
1.2507 2.6567 -0.7868 8.0
1.2663 2.6536 -0.7878 9.0
1.2642 2.6375 -0.7837 8.0
1.2814 2.6378 -0.7858 8.0
1.286 2.6355 -0.7858 8.0
1.3032 2.6357 -0.7878 9.0
1.3061 2.63 -0.7868 8.0
1.3164 2.6162 -0.7847 9.0
1.3262 2.6242 -0.7878 10.0
1.3364 2.6104 -0.7858 8.0
1.3392 2.6046 -0.7847 8.0
1.3559 2.6024 -0.7863 8.0
1.3587 2.5967 -0.7853 8.0
1.37 2.5863 -0.7842 8.0
1.379 2.5925 -0.7868 9.0
1.3944 2.5886 -0.7878 9.0
1.3962 2.5811 -0.7863 10.0
1.4055 2.565 -0.7837 9.0
1.4137 2.5693 -0.7858 9.0
1.4275 2.5616 -0.7858 9.0
1.4348 2.5642 -0.7873 10.0
1.4435 2.5482 -0.7847 8.0
1.446 2.5424 -0.7837 9.0
12.7839 27.2784 0.5258 9.0
12.7293 27.0389 0.5217 18.0
12.7743 26.7698 0.5177 13.0
12.7 26.495 0.5129 17.0
12.7162 26.1763 0.508 17.0
12.5689 25.7587 0.5003 17.0
12.6682 25.6208 0.4989 16.0
12.7147 25.6023 0.499 16.0
12.8054 25.4496 0.4973 16.0
12.7488 25.2273 0.4934 8.0
12.7258 24.8576 0.4874 12.0
12.7124 24.7251 0.4853 16.0
12.8091 24.585 0.4839 12.0
12.7574 24.3819 0.4803 7.0
12.7627 24.0944 0.4759 7.0
12.709 23.892 0.4724 15.0
12.7125 23.5998 0.4679 11.0
12.7784 23.6233 0.4688 7.0
12.7811 23.3258 0.4643 3.0
12.7543 23.1808 0.4618 10.0
12.8289 23.0207 0.46 3.0
12.7871 22.8517 0.4571 3.0
12.7922 22.5826 0.453 14.0
12.798 22.5011 0.4518 14.0
1.4464 3.0862 -0.7869 6.0
1.4551 3.0908 -0.7887 8.0
1.4729 3.0866 -0.7896 8.0
1.485 3.0981 -0.7932 9.0
1.4961 3.0798 -0.7905 7.0
1.4981 3.0701 -0.7887 9.0
1.5124 3.0588 -0.7878 7.0
1.5195 3.0596 -0.7887 8.0
1.5407 3.0621 -0.7914 9.0
1.5443 3.0559 -0.7905 9.0
1.5576 3.0426 -0.7891 8.0
1.5603 3.0346 -0.7878 8.0
1.5803 3.0331 -0.7896 8.0
1.5892 3.0372 -0.7914 8.0
1.6009 3.0222 -0.7896 9.0
1.6052 3.0177 -0.7891 7.0
1.6182 3.0041 -0.7878 6.0
1.629 3.0116 -0.7905 6.0
1.6481 3.0078 -0.7918 7.0
1.6524 3.0033 -0.7914 6.0
1.662 2.9824 -0.7882 7.0
1.671 2.9863 -0.79 8.0
1.6895 2.9826 -0.7914 6.0
1.6976 2.9847 -0.7927 8.0
12.6828 27.0625 1.5663 20.0
12.5709 26.7024 1.5467 50.0
12.6796 26.5713 1.543 60.0
12.7009 26.4969 1.5399 39.0
12.7714 26.2899 1.5318 39.0
12.7419 26.1132 1.5228 39.0
12.7758 25.8385 1.5106 29.0
12.7942 25.7625 1.5075 38.0
12.9235 25.6844 1.5069 38.0
12.8819 25.4907 1.4968 38.0
13.0425 25.4763 1.4999 38.0
13.0778 25.4357 1.4989 38.0
12.8946 24.6442 1.4577 18.0
12.8378 24.2362 1.4374 27.0
12.8088 24.0798 1.4294 45.0
12.9196 23.9842 1.4277 27.0
12.9063 23.8598 1.4217 9.0
12.9181 23.5759 1.4089 35.0
12.9034 23.4518 1.4028 8.0
13.0787 23.4689 1.408 8.0
13.0221 23.2717 1.3976 17.0
12.941 22.8453 1.376 34.0
12.9019 22.6837 1.3676 8.0
1.7137 3.6568 -0.785 9.0
1.7193 3.652 -0.7846 9.0
1.7367 3.6394 -0.7838 9.0
1.7439 3.6381 -0.7842 10.0
1.7638 3.6307 -0.7846 9.0
1.7735 3.6347 -0.7861 11.0
1.7943 3.6289 -0.7869 9.0
1.7936 3.6117 -0.7838 11.0
1.816 3.6092 -0.7854 9.0
1.8215 3.6043 -0.785 11.0
1.843 3.6 -0.7861 8.0
1.8493 3.5967 -0.7861 9.0
1.8624 3.5745 -0.7835 9.0
1.8722 3.5782 -0.785 9.0
1.8903 3.5687 -0.785 9.0
1.9002 3.5723 -0.7865 9.0
1.917 3.5589 -0.7858 9.0
1.9186 3.5469 -0.7838 11.0
1.9396 3.5399 -0.7846 12.0
1.9458 3.5365 -0.7846 12.0
1.9659 3.5276 -0.785 11.0
1.9682 3.5173 -0.7835 13.0
1.9808 3.4967 -0.7812 16.0
1.9927 3.5035 -0.7835 15.0
14.3572 30.6354 2.96 13.0
14.3971 30.5814 2.9572 20.0
14.5965 30.5884 2.9652 20.0
15.3112 31.9427 3.0991 7.0
15.2815 31.457 3.0597 7.0
15.3591 31.4769 3.0642 14.0
15.4831 31.3139 3.0562 14.0
15.6263 31.4652 3.0736 7.0
16.6004 32.9919 3.2312 16.0
16.6535 32.954 3.2303 32.0
16.7777 32.7724 3.2211 16.0
16.9396 32.9468 3.2411 33.0
17.1112 32.8423 3.2399 16.0
17.1168 32.7135 3.2302 16.0
17.1777 32.4293 3.2106 16.0
17.2174 32.3676 3.2075 8.0
18.8569 35.0064 3.4787 19.0
19.0954 34.8496 3.4766 9.0
17.9671 32.6551 3.2608 8.0
19.288 34.6111 3.4665 9.0
16.5483 29.5734 2.9649 13.0
16.6598 29.4101 2.9572 6.0
16.8982 29.71 2.9903 6.0
2.1233 4.5308 -0.7925 9.0
2.1329 4.5306 -0.7931 10.0
2.1609 4.5283 -0.7947 11.0
2.1671 4.521 -0.7941 9.0
2.1847 4.4971 -0.7919 9.0
2.1916 4.4915 -0.7916 9.0
2.2239 4.4977 -0.7947 14.0
2.23 4.4903 -0.7941 9.0
2.2552 4.4821 -0.7947 11.0
2.2532 4.4587 -0.7912 10.0
2.2802 4.4539 -0.7925 9.0
2.2897 4.4534 -0.7931 9.0
2.3165 4.4462 -0.7941 11.0
2.3234 4.4404 -0.7937 10.0
2.344 4.4251 -0.7931 10.0
2.3508 4.4193 -0.7928 9.0
2.3739 4.4069 -0.7928 10.0
2.3844 4.408 -0.7937 9.0
2.4101 4.3985 -0.7944 13.0
2.412 4.3839 -0.7925 9.0
2.4386 4.3759 -0.7934 9.0
2.4511 4.3803 -0.795 10.0
2.4759 4.3708 -0.7956 13.0
2.4806 4.3614 -0.7947 10.0
14.9145 31.8246 4.3154 9.0
14.9446 31.7446 4.3081 19.0
15.1243 31.6946 4.312 9.0
14.9136 31.1132 4.2364 19.0
15.2585 31.4097 4.2876 9.0
15.2994 31.3545 4.2837 19.0
15.2733 30.8896 4.2311 19.0
15.1912 30.5891 4.1935 9.0
15.7678 31.3372 4.3074 38.0
15.8825 31.4283 4.3237 28.0
16.8492 32.9121 4.5399 10.0
16.9774 33.0203 4.5589 10.0
17.0358 32.1614 4.4687 9.0
17.9958 33.2686 4.6442 10.0
18.187 33.1917 4.6471 10.0
2.7529 5.8742 -0.7965 13.0
2.7598 5.8622 -0.7956 13.0
2.7913 5.8495 -0.7958 13.0
2.8049 5.8517 -0.7968 13.0
2.8347 5.8352 -0.7965 13.0
2.8466 5.8338 -0.797 13.0
2.8727 5.8099 -0.7958 13.0
2.8837 5.8067 -0.7961 13.0
2.9141 5.7915 -0.7961 13.0
2.9242 5.7864 -0.7961 13.0
2.9517 5.7657 -0.7953 13.0
2.9554 5.7482 -0.7936 13.0
2.9874 5.7339 -0.7939 12.0
2.9983 5.7304 -0.7941 13.0
3.0329 5.7257 -0.7956 13.0
3.0401 5.7151 -0.7948 13.0
3.0615 5.6834 -0.7926 13.0
3.078 5.6903 -0.7943 13.0
3.1059 5.6683 -0.7936 13.0
3.1206 5.6716 -0.7948 13.0
3.1415 5.6373 -0.7924 13.0
3.1504 5.6301 -0.7922 13.0
3.1808 5.6152 -0.7924 13.0
3.1945 5.6165 -0.7934 13.0
15.0729 32.1625 5.6257 17.0
16.3759 34.1637 6.0005 19.0
16.6735 33.1372 5.8754 18.0
16.6565 32.96 5.8491 18.0
17.9242 32.577 5.8891 19.0
18.4038 32.8892 5.9692 19.0
3.8816 8.2826 -0.8003 9.0
3.8995 8.283 -0.801 9.0
3.9428 8.2625 -0.801 9.0
3.9494 8.2394 -0.7994 9.0
3.9934 8.2204 -0.7996 9.0
4.0112 8.2206 -0.8003 9.0
4.0551 8.2013 -0.8004 9.0
4.0597 8.1746 -0.7985 6.0
4.1051 8.1585 -0.799 1.0
4.1211 8.1549 -0.7994 4.0
4.1783 8.1616 -0.8022 7.0
4.1971 8.1632 -0.8031 9.0
4.2357 8.1297 -0.802 9.0
4.2452 8.1135 -0.8011 9.0
4.2872 8.0937 -0.8013 9.0
4.3079 8.0985 -0.8025 9.0
4.3521 8.0793 -0.8029 9.0
4.3652 8.07 -0.8027 9.0
4.4012 8.0323 -0.8013 9.0
4.4123 8.0193 -0.8008 12.0
4.4585 8.0006 -0.8013 9.0
4.4764 7.9997 -0.802 9.0
4.5172 7.9744 -0.8018 7.0
4.5223 7.951 -0.8003 7.0
16.5095 33.2435 7.2149 11.0
16.6903 33.1706 7.2179 11.0
16.8607 32.7933 7.1675 11.0
6.6643 14.2203 -0.823 9.0
6.6925 14.2159 -0.8235 11.0
6.7617 14.1698 -0.8228 11.0
6.7933 14.1724 -0.8237 11.0
6.8744 14.151 -0.8245 9.0
6.8938 14.1282 -0.8239 9.0
6.9801 14.117 -0.8253 11.0
7.0065 14.1084 -0.8255 9.0
7.0911 14.0929 -0.8268 11.0
7.1211 14.0912 -0.8274 11.0
7.1966 14.0573 -0.8276 11.0
7.2284 14.0589 -0.8285 11.0
7.2914 13.9948 -0.827 11.0
7.327 14.0033 -0.8283 9.0
7.394 13.959 -0.8279 11.0
7.4165 13.9425 -0.8276 11.0
7.4856 13.8964 -0.8272 11.0
7.5174 13.8974 -0.8281 11.0
7.6002 13.8705 -0.8289 11.0
7.6167 13.8433 -0.8281 11.0
7.672 13.767 -0.826 9.0
7.6961 13.7535 -0.826 11.0
7.7699 13.7165 -0.8262 11.0
7.7958 13.7064 -0.8264 9.0
16.0725 33.5309 8.5846 15.0
16.6694 33.1291 8.5621 15.0
11.2561 20.8091 -0.413 2.0
1.4593 2.5348 -0.7837 9.0
1.4657 2.5356 -0.7847 8.0
1.4848 2.5378 -0.7878 9.0
1.4853 2.5286 -0.7858 11.0
1.4956 2.5158 -0.7842 9.0
1.5019 2.5165 -0.7853 9.0
1.5151 2.5086 -0.7853 8.0
1.5285 2.5208 -0.7899 9.0
1.5346 2.5013 -0.7863 8.0
1.5369 2.4953 -0.7853 9.0
1.5473 2.482 -0.7837 9.0
1.5599 2.4924 -0.7878 8.0
1.5729 2.4842 -0.7878 8.0
1.571 2.4717 -0.7847 9.0
1.5783 2.4556 -0.7822 8.0
1.5878 2.4609 -0.7847 8.0
1.6011 2.4523 -0.7847 8.0
1.6117 2.4592 -0.7878 9.0
1.6235 2.4491 -0.7873 11.0
1.6203 2.435 -0.7837 8.0
1.6352 2.4297 -0.7847 9.0
1.6426 2.4317 -0.7863 8.0
1.6612 2.4307 -0.7889 8.0
1.66 2.4198 -0.7863 9.0
12.8478 22.3159 0.4495 13.0
12.8547 22.2381 0.4484 10.0
12.8457 21.9564 0.444 6.0
12.7726 21.7443 0.4402 16.0
12.8127 21.5534 0.4377 13.0
12.756 21.373 0.4345 19.0
12.8492 21.2751 0.4338 13.0
12.7971 21.1056 0.4308 12.0
12.7893 20.8457 0.4269 15.0
12.7743 20.7399 0.4252 12.0
12.7742 20.4906 0.4215 9.0
12.8757 20.5734 0.4236 6.0
13.0057 20.5412 0.4244 3.0
12.9493 20.3733 0.4214 12.0
12.916 20.0956 0.417 12.0
12.951 20.073 0.417 6.0
12.9501 19.8352 0.4135 8.0
12.8707 19.6386 0.4099 11.0
12.8607 19.4009 0.4063 13.0
13.0186 19.5649 0.4102 5.0
12.9735 19.2775 0.4056 2.0
12.9735 19.2051 0.4045 8.0
12.9509 18.9497 0.4006 11.0
13.2158 19.2651 0.4078 14.0
1.7083 2.9673 -0.7905 6.0
1.7096 2.9576 -0.7887 6.0
1.729 2.9553 -0.7905 8.0
1.7332 2.9506 -0.79 7.0
1.7536 2.9499 -0.7923 6.0
1.7567 2.9435 -0.7914 6.0
1.7661 2.9242 -0.7887 8.0
1.7702 2.9195 -0.7882 7.0
1.7926 2.9218 -0.7914 8.0
1.8007 2.9236 -0.7927 8.0
1.8155 2.9122 -0.7923 8.0
1.8175 2.904 -0.7909 10.0
1.8295 2.8896 -0.7896 7.0
1.8387 2.8929 -0.7914 9.0
1.8555 2.8869 -0.7923 6.0
1.8563 2.8771 -0.7905 7.0
1.8654 2.8572 -0.7878 8.0
1.8704 2.8539 -0.7878 7.0
1.8918 2.8539 -0.7905 8.0
1.8989 2.8538 -0.7914 6.0
1.916 2.847 -0.7923 9.0
1.9166 2.8372 -0.7905 9.0
1.9319 2.8268 -0.7905 8.0
1.938 2.8251 -0.7909 7.0
12.8232 22.2732 1.3469 8.0
12.89 22.2992 1.3498 8.0
12.8977 22.0452 1.3385 8.0
12.8127 21.8125 1.3258 8.0
12.7145 21.3881 1.304 8.0
12.6351 21.1703 1.2921 8.0
12.882 21.3296 1.3059 8.0
12.8116 21.1294 1.295 8.0
12.5773 20.5003 1.2605 7.0
12.7514 20.7028 1.2743 15.0
12.8991 20.6911 1.2778 7.0
12.914 20.6347 1.2757 7.0
13.1843 20.8233 1.2917 8.0
12.7706 20.0923 1.2477 22.0
13.1205 20.4138 1.2718 7.0
12.8725 19.9512 1.2443 7.0
12.9977 19.908 1.246 38.0
12.9295 19.7283 1.2362 15.0
12.962 19.5538 1.2295 15.0
12.9098 19.4014 1.2213 29.0
13.3881 19.8936 1.2567 7.0
13.0382 19.3009 1.2207 7.0
13.298 19.385 1.232 22.0
2.0169 3.5032 -0.7858 9.0
2.0289 3.5099 -0.788 8.0
2.0393 3.4857 -0.785 9.0
2.0404 3.4737 -0.7831 9.0
2.0626 3.4697 -0.7846 11.0
2.0707 3.4694 -0.7854 9.0
2.0878 3.4569 -0.785 9.0
2.0979 3.4599 -0.7865 9.0
2.1149 3.4472 -0.7861 9.0
2.1179 3.4385 -0.785 11.0
2.1406 3.4337 -0.7865 8.0
2.1476 3.4316 -0.7869 9.0
2.1656 3.4203 -0.7869 9.0
2.1652 3.4066 -0.7846 9.0
2.1856 3.4005 -0.7858 10.0
2.1937 3.4 -0.7865 10.0
2.2142 3.3914 -0.7873 9.0
2.219 3.3859 -0.7869 9.0
2.2237 3.3546 -0.7823 9.0
2.2383 3.3638 -0.7854 9.0
2.258 3.3552 -0.7861 9.0
2.2617 3.348 -0.7854 9.0
2.282 3.339 -0.7861 9.0
2.2845 3.3302 -0.785 9.0
17.173 29.7086 3.0022 7.0
17.2146 29.424 2.9825 27.0
16.5525 28.1793 2.8592 6.0
16.6713 28.0443 2.8544 6.0
16.9759 28.108 2.8728 12.0
12.6905 20.9297 2.1414 6.0
12.803 20.868 2.1419 13.0
16.8945 27.4295 2.8184 12.0
17.0142 27.292 2.8137 24.0
17.1094 27.3383 2.8216 12.0
12.7247 20.0975 2.0811 3.0
12.7171 20.008 2.0741 3.0
12.8979 20.0674 2.087 3.0
12.9242 20.0315 2.0856 13.0
13.1305 20.1114 2.1013 3.0
17.8333 27.2106 2.8463 6.0
13.2133 19.9329 2.0923 6.0
13.4026 20.142 2.1167 6.0
13.4712 20.017 2.1109 20.0
13.6321 20.18 2.1306 10.0
18.809 27.5213 2.9164 13.0
2.5005 4.3432 -0.7937 9.0
2.507 4.3371 -0.7934 9.0
2.5317 4.3273 -0.7941 11.0
2.5423 4.328 -0.795 9.0
2.5609 4.3078 -0.7937 9.0
2.5613 4.2915 -0.7916 9.0
2.5888 4.2865 -0.7931 8.0
2.5973 4.2836 -0.7934 9.0
2.6208 4.2717 -0.7937 9.0
2.6272 4.2654 -0.7934 9.0
2.6429 4.2394 -0.7912 9.0
2.6503 4.2348 -0.7912 9.0
2.6735 4.2225 -0.7916 9.0
2.6883 4.2295 -0.7937 12.0
2.7075 4.2125 -0.7931 9.0
2.7052 4.1928 -0.7903 9.0
2.7322 4.1848 -0.7916 9.0
2.7406 4.1816 -0.7919 9.0
2.7591 4.1623 -0.7909 8.0
2.7642 4.1542 -0.7903 8.0
2.7837 4.1364 -0.7897 9.0
2.792 4.1331 -0.79 8.0
2.8166 4.1212 -0.7906 9.0
2.8294 4.1245 -0.7922 8.0
16.729 28.1412 4.0197 9.0
16.8432 28.2211 4.0353 9.0
13.0355 21.5836 3.096 6.0
12.927 21.3198 3.0614 5.0
12.6591 20.553 2.9639 5.0
12.7953 20.5246 2.9697 5.0
13.0038 20.7782 3.0097 5.0
12.7748 20.1765 2.9322 16.0
12.8025 20.1424 2.9305 37.0
12.9258 20.1108 2.9353 21.0
12.9426 20.0598 2.9312 26.0
13.0335 19.9629 2.9273 21.0
13.1511 20.0663 2.9458 21.0
13.1956 19.9062 2.9324 21.0
13.381 20.1095 2.9658 27.0
13.3952 19.9042 2.9458 5.0
13.5122 20.0025 2.9639 5.0
13.7972 20.188 3.0024 5.0
3.2229 5.598 -0.7931 13.0
3.2277 5.5838 -0.7919 13.0
3.2539 5.5617 -0.7912 13.0
3.2626 5.5543 -0.7909 12.0
3.2987 5.5491 -0.7926 13.0
3.3074 5.5416 -0.7924 13.0
3.3323 5.5174 -0.7914 13.0
3.3357 5.5014 -0.79 12.0
3.3645 5.4839 -0.79 13.0
3.3626 5.4594 -0.7873 25.0
3.3984 5.4512 -0.7887 23.0
3.4163 5.4587 -0.7907 11.0
3.4406 5.4341 -0.7897 13.0
3.4479 5.4247 -0.7892 13.0
3.4796 5.4139 -0.7902 13.0
3.4891 5.4078 -0.7902 13.0
3.5194 5.3905 -0.7904 12.0
3.5157 5.3644 -0.7875 11.0
3.5525 5.3592 -0.7895 12.0
3.563 5.3546 -0.7897 12.0
3.5888 5.3326 -0.7892 12.0
3.6003 5.3296 -0.7897 11.0
3.6223 5.3002 -0.7883 13.0
3.6316 5.2939 -0.7883 12.0
13.1742 21.3892 3.9788 10.0
13.1886 21.0734 3.9375 10.0
13.4307 21.1308 3.9656 10.0
13.0813 19.9599 3.7798 10.0
13.2183 19.9405 3.7892 21.0
13.3407 20.0489 3.8142 10.0
13.4918 20.0477 3.8273 42.0
13.4737 19.9455 3.8123 10.0
4.5569 7.9151 -0.799 6.0
4.5807 7.9244 -0.8008 4.0
4.6322 7.9175 -0.8025 4.0
4.6379 7.8956 -0.8011 3.0
4.6873 7.8849 -0.8025 3.0
4.697 7.8699 -0.8018 3.0
4.7443 7.8554 -0.8029 4.0
4.7456 7.8267 -0.8008 6.0
4.7907 7.8085 -0.8015 6.0
4.8054 7.8019 -0.8017 9.0
4.8391 7.7622 -0.8003 9.0
4.8547 7.7571 -0.8006 9.0
4.9017 7.7417 -0.8017 9.0
4.9098 7.7247 -0.8008 10.0
4.9424 7.6897 -0.7997 9.0
4.9547 7.6794 -0.7996 9.0
5.0006 7.6592 -0.8003 9.0
5.0139 7.6504 -0.8003 9.0
5.0539 7.6241 -0.8003 9.0
5.0584 7.602 -0.7989 9.0
5.1004 7.5787 -0.7992 9.0
5.1225 7.583 -0.8006 9.0
5.1578 7.5469 -0.7997 7.0
5.1732 7.5412 -0.8001 9.0
13.4304 20.4925 4.7626 5.0
13.518 20.3925 4.7557 5.0
13.649 20.2813 4.7519 11.0
13.2668 19.6393 4.6069 5.0
13.528 19.7941 4.6603 5.0
13.4914 19.6669 4.6359 15.0
7.8615 13.655 -0.8258 11.0
7.8793 13.6309 -0.8251 9.0
7.9566 13.5998 -0.8258 9.0
7.9824 13.5894 -0.826 9.0
8.0534 13.5474 -0.826 9.0
8.0832 13.5436 -0.8266 11.0
8.1458 13.4874 -0.8258 11.0
8.1734 13.48 -0.8262 9.0
8.2564 13.4574 -0.8274 9.0
8.2841 13.4498 -0.8279 9.0
8.3631 13.415 -0.8285 11.0
8.3759 13.3834 -0.8274 9.0
8.4565 13.3563 -0.8285 11.0
8.4327 13.2673 -0.8239 11.0
8.436 13.1253 -0.8177 19.0
8.551 13.2532 -0.8266 11.0
8.5723 13.1299 -0.8218 23.0
8.6806 13.2452 -0.8299 11.0
8.7609 13.2162 -0.831 9.0
8.7884 13.2075 -0.8314 9.0
8.8529 13.1547 -0.831 11.0
8.8736 13.1359 -0.8308 9.0
8.9536 13.1009 -0.8316 11.0
8.9482 13.0441 -0.829 19.0
11.2055 19.4634 -0.392 2.0
11.2395 19.4438 -0.392 2.0
11.3411 19.3847 -0.392 2.0
11.3749 19.3649 -0.392 2.0
11.4762 19.3051 -0.392 2.0
11.5365 19.3296 -0.3929 2.0
11.2217 18.2907 -0.3746 2.0
11.2536 18.2711 -0.3746 2.0
11.3523 18.2099 -0.3746 2.0
11.278 17.547 -0.3641 2.0
11.1443 17.0044 -0.3549 2.0
11.1934 16.8858 -0.3536 2.0
11.2229 16.8662 -0.3536 2.0
11.311 16.8073 -0.3536 2.0
11.3404 16.7875 -0.3536 2.0
11.4762 16.7919 -0.355 2.0
11.5733 16.8708 -0.3571 2.0
11.2983 17.044 5.4792 7.0
11.3323 17.0306 5.4813 14.0
11.3911 16.9262 5.4668 29.0
11.3557 16.8102 5.4357 14.0
11.355 16.6146 5.3922 14.0
11.2856 16.4514 5.3456 13.0
1.6693 2.4063 -0.7847 9.0
1.678 2.4098 -0.7868 10.0
1.6928 2.4041 -0.7878 9.0
1.7014 2.4075 -0.7899 8.0
1.7091 2.3925 -0.7878 8.0
1.7054 2.3786 -0.7842 8.0
1.7182 2.3693 -0.7842 8.0
1.7246 2.3694 -0.7853 8.0
1.7405 2.365 -0.7868 8.0
1.7423 2.3589 -0.7858 9.0
1.7535 2.3482 -0.7853 10.0
1.7587 2.3467 -0.7858 8.0
1.7756 2.3436 -0.7878 9.0
1.7751 2.3343 -0.7858 9.0
1.7896 2.3281 -0.7868 9.0
1.7819 2.3096 -0.7816 8.0
1.8038 2.3121 -0.7858 9.0
1.8103 2.312 -0.7868 9.0
1.8247 2.3056 -0.7878 8.0
1.8264 2.2993 -0.7868 8.0
1.8275 2.2762 -0.7822 9.0
1.8399 2.2835 -0.7858 9.0
1.8596 2.2825 -0.7889 11.0
1.8636 2.2793 -0.7889 16.0
13.1307 18.9279 0.4021 11.0
13.0563 18.7507 0.3988 21.0
13.076 18.5709 0.3964 10.0
12.9838 18.3716 0.3927 2.0
13.058 18.2796 0.3921 5.0
13.013 18.1496 0.3898 15.0
13.0664 18.0174 0.3885 10.0
13.0578 17.9396 0.3873 2.0
12.6727 17.2203 0.3732 9.0
12.8382 17.3815 0.3772 9.0
12.9841 17.3878 0.3788 9.0
12.9904 17.3331 0.3781 9.0
15.2185 20.086 0.4399 3.0
13.0167 17.1178 0.3754 2.0
12.9526 16.8497 0.371 9.0
13.0113 16.865 0.3718 4.0
12.9892 16.6493 0.3686 9.0
12.9837 16.5825 0.3676 9.0
12.3282 15.5767 0.3467 3.0
12.6887 15.9748 0.3561 8.0
12.7334 15.8598 0.355 6.0
12.5778 15.6102 0.3499 8.0
12.6242 15.4954 0.3489 18.0
12.5892 15.3975 0.3472 15.0
1.9539 2.8165 -0.7914 8.0
1.9554 2.8083 -0.79 7.0
1.9679 2.7948 -0.7891 8.0
1.975 2.7945 -0.79 10.0
1.988 2.7829 -0.7896 8.0
1.9996 2.7889 -0.7923 8.0
2.017 2.7812 -0.7932 8.0
2.0115 2.7635 -0.7891 7.0
2.0248 2.7514 -0.7887 8.0
2.0319 2.751 -0.7896 6.0
2.0486 2.7434 -0.7905 7.0
2.0546 2.7414 -0.7909 8.0
2.0642 2.7244 -0.7891 8.0
2.0701 2.7224 -0.7896 8.0
2.0867 2.7146 -0.7905 8.0
2.0938 2.714 -0.7914 6.0
2.1145 2.7103 -0.7936 8.0
2.1084 2.6928 -0.7896 6.0
2.1249 2.6848 -0.7905 7.0
2.1247 2.675 -0.7887 7.0
2.1472 2.6745 -0.7918 7.0
2.1482 2.6662 -0.7905 10.0
2.1565 2.6469 -0.7882 6.0
2.1586 2.6402 -0.7873 6.0
13.1694 18.9836 1.2108 7.0
13.3531 19.1769 1.2247 7.0
13.0578 18.545 1.1887 7.0
13.353 18.894 1.2125 7.0
13.0414 18.1891 1.173 7.0
13.0903 18.0504 1.1686 21.0
13.0795 17.9694 1.1648 35.0
13.0077 17.6755 1.1501 20.0
13.1263 17.7716 1.1579 6.0
13.1308 17.5842 1.1501 20.0
13.1495 17.5453 1.1491 6.0
13.2001 17.4221 1.1455 6.0
13.0782 17.1987 1.1323 6.0
13.2801 17.2757 1.142 13.0
13.0271 16.8856 1.1177 6.0
13.0741 16.7582 1.1139 6.0
12.3793 15.8106 1.0524 6.0
12.5933 15.9116 1.0635 12.0
12.6683 15.949 1.0674 6.0
12.1964 15.191 1.021 5.0
12.2731 15.2319 1.0252 11.0
12.6202 15.4905 1.0471 24.0
12.5511 15.3509 1.0392 24.0
2.3008 3.3165 -0.7846 9.0
2.311 3.319 -0.7861 9.0
2.3318 3.3116 -0.7873 10.0
2.3342 3.3027 -0.7861 9.0
2.3428 3.2797 -0.7835 9.0
2.3566 3.2868 -0.7861 9.0
2.3709 3.2692 -0.785 9.0
2.3777 3.2667 -0.7854 9.0
2.3983 3.2589 -0.7865 9.0
2.3993 3.2484 -0.785 9.0
2.4198 3.2405 -0.7861 9.0
2.4255 3.2363 -0.7861 9.0
2.4471 3.2298 -0.7877 9.0
2.4516 3.224 -0.7873 9.0
2.4588 3.1986 -0.7842 9.0
2.462 3.1912 -0.7835 9.0
2.4889 3.1902 -0.7865 8.0
2.4993 3.1921 -0.788 9.0
2.5087 3.1697 -0.7858 9.0
2.5081 3.1576 -0.7838 9.0
2.5271 3.1475 -0.7846 9.0
2.5338 3.1446 -0.785 9.0
2.552 3.1324 -0.7854 9.0
2.5575 3.1279 -0.7854 9.0
19.3353 27.7682 2.9603 6.0
19.4942 27.6861 2.9624 13.0
18.0384 25.5238 2.7344 11.0
19.5386 27.3517 2.9408 13.0
19.591 27.3241 2.9415 6.0
19.783 27.2789 2.9481 20.0
19.7977 27.1993 2.9432 6.0
20.0698 27.2718 2.9624 13.0
20.1623 27.2976 2.969 13.0
18.9007 25.3111 2.7637 5.0
18.9496 25.2844 2.7644 11.0
18.9734 25.0419 2.7487 5.0
19.7094 25.9191 2.8488 12.0
15.5876 20.2775 2.2376 3.0
20.8221 26.9892 2.9823 6.0
12.5165 16.0434 1.7802 2.0
12.3651 15.7925 1.7548 2.0
12.4724 15.7588 1.7583 11.0
12.3375 15.5326 1.7354 17.0
12.3326 15.3606 1.7234 10.0
12.3456 15.322 1.7215 10.0
12.4221 15.2472 1.7206 10.0
12.4461 15.2225 1.7203 4.0
2.8464 4.1031 -0.7909 9.0
2.8423 4.0819 -0.7878 9.0
2.8659 4.0702 -0.7884 9.0
2.8787 4.0733 -0.79 8.0
2.9027 4.0635 -0.7909 9.0
2.9075 4.0552 -0.7903 9.0
2.9236 4.0314 -0.7887 11.0
2.9283 4.0231 -0.7881 9.0
2.9552 4.0157 -0.7897 9.0
2.9669 4.0169 -0.7909 9.0
2.9808 3.9918 -0.7891 8.0
2.9806 3.9771 -0.7872 10.0
3.0038 3.9646 -0.7878 9.0
3.0119 3.9609 -0.7881 8.0
3.0374 3.9513 -0.7894 9.0
3.0371 3.9366 -0.7875 9.0
3.0523 3.9124 -0.7859 9.0
3.0603 3.9086 -0.7862 8.0
3.0844 3.8971 -0.7872 8.0
3.0937 3.8949 -0.7878 8.0
3.1115 3.8755 -0.7872 8.0
3.1109 3.8609 -0.7853 8.0
3.133 3.8455 -0.7856 9.0
3.1422 3.8431 -0.7862 11.0
14.0057 20.1891 3.017 11.0
13.907 19.9724 2.9882 5.0
15.0835 21.1151 3.1862 6.0
14.6661 19.6403 3.0097 11.0
15.031 19.4829 3.0214 5.0
15.1777 19.4545 3.0297 5.0
13.5163 16.5903 2.6275 12.0
13.4899 16.4991 2.6168 20.0
3.6649 5.283 -0.7895 13.0
3.6775 5.2814 -0.7902 12.0
3.6983 5.2524 -0.7887 12.0
3.7006 5.2362 -0.7873 13.0
3.7316 5.2238 -0.7883 13.0
3.7396 5.2157 -0.788 13.0
3.7782 5.2099 -0.7902 13.0
3.7803 5.1936 -0.7887 12.0
3.7981 5.161 -0.7868 12.0
3.8118 5.1607 -0.7878 13.0
3.8435 5.1471 -0.7887 13.0
3.8572 5.1467 -0.7897 12.0
3.8829 5.1248 -0.7895 13.0
3.8847 5.1086 -0.788 13.0
3.9114 5.0882 -0.788 13.0
3.9214 5.0829 -0.7883 13.0
3.955 5.0694 -0.7895 13.0
3.9651 5.0641 -0.7897 13.0
3.9817 5.0308 -0.7878 13.0
3.9917 5.0254 -0.788 13.0
4.0192 5.006 -0.7883 13.0
4.0304 5.0021 -0.7887 12.0
4.0574 4.9802 -0.7887 13.0
4.0636 4.97 -0.7883 13.0
14.3137 20.2534 3.9281 10.0
14.416 20.1807 3.9281 10.0
14.7044 20.2017 3.9575 10.0
13.6099 16.9515 3.4431 39.0
13.4536 16.697 3.3962 19.0
13.6111 16.7067 3.4131 39.0
13.5427 16.5636 3.3887 29.0
5.2036 7.5009 -0.7987 7.0
5.2178 7.4935 -0.7989 9.0
5.2604 7.4709 -0.7994 10.0
5.2723 7.4601 -0.7992 9.0
5.3111 7.4349 -0.7994 10.0
5.3218 7.4224 -0.799 9.0
5.3478 7.3742 -0.797 9.0
5.3748 7.3842 -0.799 9.0
5.4204 7.3655 -0.8001 9.0
5.4333 7.3561 -0.8001 10.0
5.4622 7.3147 -0.7987 13.0
5.4726 7.302 -0.7983 13.0
5.5119 7.2748 -0.7985 13.0
5.527 7.2684 -0.7989 13.0
5.5614 7.2346 -0.7983 15.0
5.5679 7.217 -0.7975 12.0
5.6105 7.1915 -0.798 10.0
5.6218 7.1801 -0.7978 9.0
5.6594 7.1506 -0.7978 9.0
5.6681 7.136 -0.7973 9.0
5.7004 7.1 -0.7966 7.0
5.719 7.0978 -0.7975 9.0
5.7637 7.0745 -0.7983 9.0
5.7709 7.0583 -0.7976 7.0
13.5651 19.554 4.626 10.0
13.6149 19.5529 4.6313 5.0
13.6922 19.446 4.6229 5.0
13.0731 17.0064 4.1696 3.0
13.0452 16.909 4.1512 15.0
13.1727 16.8846 4.1627 7.0
11.6889 14.5588 3.6292 2.0
9.0107 12.9888 -0.8285 21.0
9.047 12.9928 -0.8297 11.0
9.1149 12.9452 -0.8297 9.0
9.1329 12.9228 -0.8293 9.0
9.2005 12.8796 -0.8295 9.0
9.23 12.8733 -0.8302 9.0
9.2971 12.8199 -0.8299 9.0
9.3172 12.8005 -0.8297 9.0
9.3864 12.7547 -0.8299 9.0
9.4087 12.7383 -0.8299 9.0
9.4776 12.6921 -0.8302 9.0
9.4914 12.6643 -0.8294 9.0
9.5467 12.6001 -0.8285 9.0
9.5771 12.5946 -0.8292 7.0
9.6466 12.549 -0.8295 9.0
9.6636 12.5258 -0.8291 9.0
9.7411 12.486 -0.8299 9.0
9.7431 12.4438 -0.8283 9.0
9.8044 12.3879 -0.828 7.0
9.8261 12.3708 -0.828 7.0
9.8907 12.3191 -0.828 4.0
9.9047 12.2925 -0.8273 7.0
9.971 12.2388 -0.8273 4.0
10.0 12.2306 -0.828 4.0
12.2778 17.1875 4.8765 5.0
11.0826 15.2819 4.3582 7.0
11.1069 15.2593 4.3573 18.0
11.2086 15.2308 4.3659 18.0
11.2317 15.2065 4.3645 14.0
11.3706 15.2271 4.3874 18.0
11.5094 15.357 4.4306 29.0
12.1098 15.983 4.6295 20.0
11.6411 15.3088 4.4401 7.0
11.6878 15.2044 4.4275 3.0
11.9428 15.2532 4.4725 3.0
12.8909 16.2876 4.7955 9.0
11.8672 14.9405 4.405 3.0
11.5305 14.3615 4.252 14.0
12.497 15.5098 4.5984 16.0
12.6004 15.4662 4.6056 28.0
12.6422 15.4623 4.611 8.0
11.7857 16.9891 -0.3609 9.0
11.108 15.9527 -0.3393 2.0
11.1477 15.8322 -0.338 2.0
11.1176 15.731 -0.3362 2.0
11.204 15.6843 -0.3364 2.0
11.2197 15.6485 -0.3361 2.0
11.2502 15.5131 -0.3345 2.0
11.1008 15.2509 -0.3293 2.0
11.1805 15.1926 -0.3293 2.0
11.169 15.1216 -0.3281 2.0
11.1858 14.9796 -0.3263 2.0
11.0728 14.7744 -0.3223 2.0
11.0292 14.5568 -0.3188 2.0
11.0231 14.4962 -0.3179 2.0
11.0623 14.3907 -0.3168 2.0
11.0825 14.365 -0.3167 2.0
11.133 14.2702 -0.3159 2.0
11.1505 14.2413 -0.3157 2.0
11.2473 14.2109 -0.3163 2.0
11.3243 14.257 -0.3178 2.0
11.4138 14.2163 -0.3182 2.0
11.4813 14.2493 -0.3194 2.0
11.7325 14.4009 -0.3242 8.0
11.1172 13.597 -0.3066 1.0
11.4993 16.5762 5.4057 14.0
10.7709 15.4685 5.0506 12.0
10.8874 15.4624 5.0672 12.0
10.9143 15.4434 5.0672 12.0
10.9497 15.3282 5.0475 12.0
10.5667 14.7376 4.8591 17.0
10.6621 14.7021 4.8663 29.0
10.6946 14.6929 4.8694 23.0
10.8149 14.6958 4.8891 12.0
10.7487 14.5526 4.8477 11.0
10.9126 14.6138 4.887 11.0
12.02 15.8645 5.3332 6.0
11.0163 14.4872 4.8767 5.0
11.052 14.3773 4.8591 11.0
12.7858 16.5727 5.6086 7.0
12.2882 15.7509 5.3529 7.0
12.2133 15.5986 5.3084 13.0
12.2732 15.5072 5.2991 13.0
12.2234 15.3889 5.2659 13.0
11.5708 14.4118 4.9522 6.0
11.6227 14.4247 4.9636 12.0
11.7323 14.4005 4.9771 18.0
11.7916 14.4219 4.9916 12.0
1.8644 2.2561 -0.7842 8.0
1.8683 2.2528 -0.7842 9.0
1.8834 2.2478 -0.7858 9.0
1.8861 2.243 -0.7853 8.0
1.9053 2.2419 -0.7884 8.0
1.903 2.2313 -0.7858 9.0
1.9096 2.2154 -0.7837 8.0
1.9135 2.2121 -0.7837 9.0
1.9276 2.2049 -0.7847 8.0
1.9416 2.2132 -0.7889 8.0
1.9557 2.2059 -0.7899 9.0
1.9429 2.1837 -0.7832 8.0
1.9624 2.1818 -0.7863 10.0
1.9662 2.1783 -0.7863 11.0
1.9811 2.1726 -0.7878 11.0
1.9875 2.172 -0.7889 10.0
1.9927 2.1542 -0.7863 10.0
1.9951 2.1493 -0.7858 9.0
2.0116 2.1444 -0.7878 9.0
2.0207 2.1465 -0.7899 8.0
2.0262 2.1307 -0.7878 9.0
2.0246 2.1216 -0.7858 8.0
2.0343 2.1095 -0.7853 9.0
2.042 2.1101 -0.7868 8.0
12.5652 15.205 0.3443 9.0
12.5624 15.1476 0.3435 5.0
12.585 15.0194 0.342 9.0
12.6163 15.0036 0.3422 9.0
11.9384 14.0474 0.3218 1.0
12.5572 14.7234 0.3378 9.0
12.4944 14.4954 0.334 14.0
12.521 14.4751 0.3341 10.0
12.5703 14.3792 0.3334 7.0
12.6086 14.3723 0.3337 3.0
12.0389 13.5789 0.3168 6.0
12.6156 14.1793 0.3313 1.0
12.7456 14.1703 0.3327 1.0
12.5801 13.9373 0.3277 1.0
12.6289 13.8498 0.3272 1.0
12.6071 13.7776 0.326 1.0
12.6598 13.6857 0.3254 1.0
12.6129 13.5873 0.3236 1.0
12.2269 13.034 0.3119 4.0
12.2688 13.033 0.3124 11.0
12.8307 13.4924 0.325 7.0
12.6831 13.2906 0.3207 6.0
12.733 13.2039 0.3202 8.0
12.592 13.0121 0.3161 1.0
2.1774 2.6348 -0.7891 6.0
2.1944 2.646 -0.7936 9.0
2.2003 2.6259 -0.7909 7.0
2.1948 2.6101 -0.7873 6.0
2.211 2.6016 -0.7882 7.0
2.2219 2.6051 -0.7905 7.0
2.2418 2.6008 -0.7927 8.0
2.2413 2.591 -0.7909 8.0
2.2445 2.5675 -0.7873 7.0
2.249 2.5636 -0.7873 8.0
2.2727 2.5635 -0.7909 6.0
2.2811 2.5639 -0.7923 8.0
2.291 2.5471 -0.7909 7.0
2.2942 2.5417 -0.7905 6.0
2.3031 2.5257 -0.7891 8.0
2.3114 2.526 -0.7905 7.0
2.3303 2.5192 -0.7923 6.0
2.3427 2.5237 -0.795 9.0
2.3425 2.4972 -0.7905 9.0
2.3456 2.4917 -0.79 7.0
2.3595 2.4812 -0.7905 6.0
2.3732 2.4869 -0.7936 10.0
2.3767 2.4646 -0.7905 7.0
2.3729 2.4521 -0.7878 6.0
12.3947 14.9986 1.0197 23.0
12.6988 15.3121 1.0425 12.0
12.6863 15.1405 1.0352 6.0
12.5354 14.9073 1.0208 5.0
12.1838 14.3362 0.986 22.0
12.3333 14.4608 0.9961 11.0
12.3723 14.3537 0.9931 22.0
12.3294 14.2535 0.9877 11.0
12.6326 14.4504 1.0059 5.0
12.5998 14.3623 1.0013 5.0
12.652 14.2203 0.9975 5.0
12.2221 13.5408 0.956 36.0
12.23 13.4123 0.9513 21.0
12.3378 13.3376 0.9522 26.0
12.4521 13.4142 0.9592 5.0
12.3022 13.1143 0.9424 26.0
12.4031 13.1757 0.9483 21.0
12.3733 13.0114 0.941 5.0
12.4594 13.0563 0.9458 26.0
12.5082 12.9707 0.9443 21.0
12.5836 13.0034 0.9483 15.0
2.5638 3.1024 -0.7823 9.0
2.5692 3.0979 -0.7823 9.0
2.5949 3.0969 -0.7854 9.0
2.5966 3.0879 -0.7842 8.0
2.614 3.0757 -0.7846 9.0
2.6104 3.0607 -0.7819 9.0
2.629 3.05 -0.7827 9.0
2.6381 3.0498 -0.7838 9.0
2.6566 3.0389 -0.7846 9.0
2.6594 3.0313 -0.7838 9.0
2.6661 3.0071 -0.7812 9.0
2.6687 2.9995 -0.7804 9.0
2.6875 2.9879 -0.7812 9.0
2.698 2.9891 -0.7827 9.0
2.7104 2.9725 -0.7819 9.0
2.7077 2.9591 -0.7796 9.0
2.725 2.9458 -0.78 9.0
2.7341 2.9454 -0.7812 9.0
2.7522 2.9339 -0.7819 8.0
2.7546 2.9262 -0.7812 9.0
2.7667 2.9094 -0.7804 9.0
2.7663 2.8989 -0.7789 9.0
2.7856 2.8886 -0.78 9.0
2.7947 2.8879 -0.7812 9.0
12.5612 15.2001 1.7252 6.0
12.0701 14.554 1.6542 8.0
12.7028 15.16 1.7304 4.0
12.1496 14.4486 1.6516 6.0
12.6096 14.8372 1.7035 6.0
12.289 14.4089 1.6568 4.0
12.2277 14.1859 1.6385 8.0
12.0608 13.943 1.6129 4.0
12.2136 13.9712 1.6235 8.0
12.2367 13.9483 1.6234 6.0
12.6188 14.2329 1.6642 4.0
12.7364 14.3151 1.6764 10.0
12.342 13.7216 1.6146 4.0
12.5661 13.9219 1.6408 6.0
12.9143 14.1628 1.6769 8.0
12.4696 13.6273 1.616 4.0
12.4701 13.4806 1.6066 8.0
12.4299 13.3902 1.5984 8.0
12.4658 13.2886 1.5941 4.0
12.4248 13.1987 1.5859 8.0
13.2205 13.9023 1.6784 6.0
12.5569 13.1585 1.5913 2.0
12.3795 12.8373 1.5603 3.0
12.6818 13.1049 1.5955 4.0
3.1685 3.8342 -0.7878 9.0
3.1639 3.815 -0.785 9.0
3.1755 3.7898 -0.7831 8.0
3.191 3.7949 -0.7853 8.0
3.2058 3.7721 -0.784 9.0
3.2239 3.78 -0.7869 10.0
3.2333 3.7511 -0.7844 9.0
3.2385 3.744 -0.784 9.0
3.2529 3.721 -0.7828 8.0
3.262 3.7183 -0.7834 8.0
3.2893 3.71 -0.7853 9.0
3.2879 3.6954 -0.7834 8.0
3.3039 3.6732 -0.7825 8.0
3.3116 3.6689 -0.7828 8.0
3.3314 3.6535 -0.7831 9.0
3.3405 3.6506 -0.7837 9.0
3.3642 3.6368 -0.7847 8.0
3.3625 3.6223 -0.7828 8.0
3.376 3.5989 -0.7815 8.0
3.3877 3.5987 -0.7828 8.0
3.414 3.5901 -0.7847 8.0
3.4162 3.5799 -0.7837 8.0
3.4226 3.5491 -0.7809 8.0
3.4274 3.5417 -0.7806 8.0
13.5496 16.3961 2.6117 16.0
13.5896 16.3862 2.6139 16.0
12.8271 15.3084 2.4523 3.0
13.789 16.3981 2.6307 4.0
13.381 15.7449 2.5371 7.0
13.3982 15.7094 2.5351 3.0
13.4439 15.5969 2.5283 3.0
13.4997 15.6065 2.5337 15.0
12.5569 14.3639 2.3426 3.0
12.5872 14.3479 2.3435 3.0
12.886 14.5343 2.385 3.0
12.3757 13.9097 2.286 6.0
12.6021 14.0108 2.3138 9.0
12.5906 13.949 2.3072 12.0
12.55 13.7633 2.287 3.0
12.6142 13.7853 2.2943 3.0
12.5619 13.5799 2.2714 9.0
12.7018 13.6831 2.2924 3.0
13.5446 14.4387 2.4308 13.0
13.6909 14.5437 2.4525 6.0
12.525 13.1709 2.2317 3.0
12.5863 13.1893 2.2385 9.0
12.5367 13.0003 2.2175 12.0
12.587 13.0069 2.2224 3.0
4.0832 4.941 -0.787 13.0
4.0994 4.9431 -0.7885 13.0
4.1282 4.9268 -0.7892 12.0
4.1343 4.9166 -0.7887 13.0
4.1535 4.8873 -0.7875 12.0
4.1659 4.8846 -0.7883 13.0
4.1875 4.8582 -0.7875 12.0
4.2051 4.8614 -0.7892 13.0
4.2292 4.8378 -0.789 12.0
4.2258 4.817 -0.7868 13.0
4.2471 4.7903 -0.7861 13.0
4.2647 4.7933 -0.7878 13.0
4.2852 4.7642 -0.7868 13.0
4.2949 4.7582 -0.787 12.0
4.3055 4.7217 -0.7846 10.0
4.3124 4.7128 -0.7844 6.0
4.3527 4.7054 -0.787 5.0
4.3636 4.7007 -0.7875 5.0
4.3976 4.6879 -0.7892 5.0
4.3908 4.6643 -0.7865 10.0
4.4171 4.6449 -0.787 10.0
4.4348 4.6473 -0.7887 10.0
4.455 4.6197 -0.788 12.0
4.4575 4.6062 -0.787 13.0
13.5537 16.4011 3.3699 39.0
13.8219 16.6664 3.4294 19.0
13.9772 16.681 3.4469 9.0
13.902 16.5326 3.4212 19.0
13.9807 16.4505 3.4193 19.0
11.9764 14.0424 2.9231 33.0
11.9904 13.9106 2.9087 41.0
12.0509 13.9315 2.9175 41.0
12.1912 13.9456 2.9338 25.0
12.0149 13.6956 2.8856 16.0
12.1022 13.6502 2.8893 33.0
12.0367 13.5287 2.8681 32.0
12.0833 13.434 2.8618 16.0
12.4221 13.623 2.92 8.0
12.5605 13.7266 2.9469 17.0
13.0424 14.0993 3.042 17.0
12.946 13.9462 3.0139 17.0
13.0216 13.8811 3.0145 8.0
13.1243 13.9418 3.0326 17.0
11.8362 12.4466 2.7204 15.0
11.8824 12.4516 2.726 30.0
11.9721 12.4148 2.7317 30.0
