# .PCD v0.7 - Point Cloud Data file format
VERSION 0.7
FIELDS x y z intensity
SIZE 4 4 4 4
TYPE F F F F
COUNT 1 1 1 1
WIDTH 1790
HEIGHT 1
VIEWPOINT 0 0 0 1 0 0 0
POINTS 1790
DATA ascii
-2.3602 0.3132 0.2083 4.0
-2.3557 0.3168 0.208 4.0
-2.3461 0.3281 0.2073 4.0
-2.3495 0.3327 0.2076 4.0
-2.3517 0.3456 0.208 4.0
-2.3629 0.3514 0.209 4.0
-2.361 0.3638 0.209 4.0
-2.3486 0.3661 0.208 4.0
-2.3545 0.3797 0.2087 4.0
-2.3538 0.3838 0.2087 4.0
-2.3596 0.3974 0.2093 4.0
-2.3629 0.4022 0.2097 4.0
-2.3646 0.4152 0.21 4.0
-2.3502 0.4169 0.2088 3.0
-2.3538 0.4303 0.2093 4.0
-2.359 0.4355 0.2099 3.0
-2.3527 0.4475 0.2095 3.0
-2.3441 0.4501 0.2088 4.0
-2.3378 0.4612 0.2085 3.0
-2.3605 0.47 0.2106 3.0
-2.3579 0.4827 0.2106 3.0
-2.3571 0.4868 0.2106 3.0
-2.3635 0.2969 0.2925 5.0
-2.3473 0.299 0.2905 5.0
-2.3535 0.3124 0.2915 5.0
-2.3609 0.3175 0.2925 5.0
-2.3631 0.3304 0.293 5.0
-2.3763 0.3365 0.2947 5.0
-2.3431 0.3443 0.2908 5.0
-2.3542 0.3502 0.2922 4.0
-2.3563 0.3631 0.2927 4.0
-2.3615 0.3681 0.2935 4.0
-2.3576 0.3802 0.2932 4.0
-2.3491 0.383 0.2922 4.0
-2.351 0.396 0.2927 4.0
-2.362 0.4021 0.2942 4.0
-2.3638 0.4151 0.2947 4.0
-2.3787 0.422 0.2966 4.0
-2.3413 0.428 0.2922 4.0
-2.3601 0.4357 0.2947 4.0
-2.3694 0.4507 0.2961 4.0
-2.3686 0.4548 0.2961 4.0
-2.3624 0.4661 0.2957 4.0
-2.346 0.4671 0.2937 4.0
-2.3551 0.4821 0.2952 4.0
-2.3737 0.4903 0.2976 4.0
-2.4325 0.414 -0.303 1.0
-2.3716 0.4165 -0.2957 1.0
-2.3826 0.4227 -0.2971 1.0
-2.3648 0.4323 -0.2952 1.0
-2.3406 0.4321 -0.2922 2.0
-2.346 0.4463 -0.2932 2.0
-2.353 0.4518 -0.2942 3.0
-2.3526 0.4641 -0.2944 4.0
-2.3538 0.4686 -0.2947 3.0
-2.3357 0.4782 -0.2927 4.0
-2.3523 0.4859 -0.2949 4.0
-2.3324 0.293 0.3723 4.0
-2.3319 0.2971 0.3723 4.0
-2.3303 0.3093 0.3723 4.0
-2.3101 0.3107 0.3692 4.0
-2.328 0.3255 0.3723 4.0
-2.3275 0.3296 0.3723 4.0
-2.3374 0.3435 0.3742 4.0
-2.3408 0.3482 0.3748 4.0
-2.3389 0.3604 0.3748 4.0
-2.3305 0.3633 0.3736 4.0
-2.3363 0.3767 0.3748 3.0
-2.3552 0.384 0.3779 3.0
-2.3492 0.3957 0.3773 4.0
-2.3446 0.3991 0.3767 3.0
-2.3308 0.4093 0.3748 3.0
-2.3379 0.4148 0.3761 2.0
-2.3551 0.4305 0.3792 3.0
-2.3466 0.4332 0.3779 3.0
-2.3326 0.4437 0.3761 3.0
-2.3434 0.45 0.3779 2.0
-2.3528 0.4642 0.3798 2.0
-2.3442 0.4667 0.3786 2.0
-2.3494 0.481 0.3798 2.0
-2.3292 0.4811 0.3767 1.0
-2.3558 0.3841 -0.2088 3.0
-2.3478 0.3954 -0.2083 4.0
-2.3511 0.4002 -0.2087 4.0
-2.345 0.4118 -0.2083 4.0
-2.3482 0.4166 -0.2087 4.0
-2.3343 0.4267 -0.2076 4.0
-2.3472 0.4333 -0.2088 4.0
-2.3546 0.4479 -0.2097 4.0
-2.3421 0.4497 -0.2087 4.0
-2.3437 0.4624 -0.209 4.0
-2.3468 0.4672 -0.2093 4.0
-2.3481 0.4807 -0.2097 4.0
-2.3434 0.484 -0.2093 4.0
-2.3492 0.2951 0.4602 4.0
-2.3507 0.2995 0.4606 4.0
-2.351 0.312 0.461 3.0
-2.3466 0.3156 0.4602 3.0
-2.3488 0.3284 0.461 3.0
-2.3365 0.3309 0.4587 3.0
-2.3425 0.3442 0.4602 3.0
-2.3497 0.3495 0.4618 3.0
-2.3478 0.3618 0.4618 3.0
-2.3511 0.3665 0.4625 3.0
-2.3414 0.3775 0.461 3.0
-2.3446 0.3823 0.4618 3.0
-2.3503 0.3958 0.4633 3.0
-2.3573 0.4013 0.4648 3.0
-2.3591 0.4143 0.4656 3.0
-2.3467 0.4163 0.4633 3.0
-2.3445 0.4286 0.4633 3.0
-2.3438 0.4327 0.4633 3.0
-2.3568 0.4483 0.4663 3.0
-2.3599 0.4532 0.4671 3.0
-2.3499 0.4636 0.4656 3.0
-2.3414 0.4662 0.464 3.0
-2.358 0.4827 0.4679 3.0
-2.3572 0.4869 0.4679 3.0
-2.374 0.3828 -0.126 3.0
-2.3458 0.3825 -0.1246 4.0
-2.3536 0.3964 -0.1251 4.0
-2.3489 0.3998 -0.1249 4.0
-2.3586 0.4142 -0.1255 4.0
-2.3579 0.4183 -0.1255 4.0
-2.3439 0.4285 -0.1249 4.0
-2.3471 0.4333 -0.1251 4.0
-2.3604 0.449 -0.1259 4.0
-2.3635 0.4539 -0.1261 4.0
-2.3612 0.4658 -0.1261 4.0
-2.3565 0.4692 -0.1259 4.0
-2.3578 0.4827 -0.1261 4.0
-2.3648 0.4884 -0.1265 4.0
-2.3357 0.2934 0.5435 3.0
-2.3391 0.298 0.5444 3.0
-2.322 0.3082 0.5408 3.0
-2.3157 0.3114 0.5394 3.0
-2.3295 0.3257 0.543 3.0
-2.354 0.3333 0.5489 3.0
-2.3445 0.3445 0.5471 3.0
-2.3304 0.3466 0.5439 3.0
-2.317 0.357 0.5412 3.0
-2.3414 0.365 0.5471 3.0
-2.3452 0.3782 0.5484 3.0
-2.3446 0.3823 0.5484 2.0
-2.331 0.3926 0.5457 1.0
-2.3303 0.3967 0.5457 2.0
-2.3359 0.4102 0.5475 3.0
-2.3428 0.4156 0.5493 2.0
-2.333 0.4265 0.5475 2.0
-2.3322 0.4306 0.5475 3.0
-2.3375 0.4446 0.5493 1.0
-2.3482 0.4509 0.552 1.0
-2.3535 0.4643 0.5538 2.0
-2.3451 0.4669 0.552 2.0
-2.3387 0.4788 0.5511 3.0
-2.334 0.4821 0.5502 2.0
-2.3552 0.3798 -0.0416 3.0
-2.3526 0.3836 -0.0416 4.0
-2.3545 0.3965 -0.0417 4.0
-2.3262 0.396 -0.0412 4.0
-2.3359 0.4102 -0.0414 4.0
-2.3391 0.415 -0.0415 4.0
-2.3448 0.4287 -0.0416 4.0
-2.3421 0.4324 -0.0416 4.0
-2.3397 0.445 -0.0416 4.0
-2.331 0.4476 -0.0414 4.0
-2.3366 0.461 -0.0416 4.0
-2.3456 0.467 -0.0417 4.0
-2.3313 0.4773 -0.0415 4.0
-2.3363 0.4826 -0.0416 3.0
-2.3385 0.2938 0.6315 3.0
-2.3533 0.2998 0.6357 3.0
-2.3613 0.3134 0.6382 3.0
-2.3492 0.316 0.6351 3.0
-2.3456 0.328 0.6346 2.0
-2.3527 0.3332 0.6367 2.0
-2.37 0.3483 0.6419 3.0
-2.3618 0.3513 0.6398 2.0
-2.3637 0.3642 0.6408 1.0
-2.344 0.3654 0.6357 2.0
-2.3573 0.3801 0.6398 1.0
-2.3605 0.3848 0.6408 1.0
-2.3622 0.3978 0.6419 1.0
-2.3615 0.402 0.6419 1.0
-2.3404 0.411 0.6367 1.0
-2.3587 0.4184 0.6419 1.0
-2.3602 0.4315 0.6429 1.0
-2.3671 0.437 0.645 1.0
-2.3685 0.4505 0.646 1.0
-2.3411 0.4496 0.6388 1.0
-2.3502 0.4636 0.6419 1.0
-2.3608 0.47 0.645 1.0
-2.3695 0.4851 0.6481 1.0
-2.3762 0.4908 0.6502 1.0
-1.8377 0.5436 -0.5135 1.0
-2.3396 0.496 0.0417 3.0
-2.3309 0.4984 0.0416 3.0
-2.3439 0.5141 0.0419 3.0
-2.3391 0.5173 0.0418 3.0
-2.352 0.5331 0.0421 3.0
-2.3471 0.5363 0.042 3.0
-2.3425 0.5477 0.042 3.0
-2.3493 0.5536 0.0421 3.0
-2.3579 0.5691 0.0423 3.0
-2.3608 0.5742 0.0424 3.0
-2.3385 0.5813 0.0421 3.0
-2.3413 0.5864 0.0421 3.0
-2.3343 0.5976 0.0421 3.0
-2.3488 0.6057 0.0423 3.0
-2.3648 0.6235 0.0427 3.0
-2.3715 0.6297 0.0428 3.0
-2.345 0.6358 0.0424 3.0
-2.3477 0.6409 0.0425 3.0
-2.3597 0.6575 0.0428 3.0
-2.3778 0.667 0.0431 3.0
-2.3743 0.6795 0.0431 3.0
-2.3808 0.6858 0.0432 3.0
-2.354 0.6919 0.0428 3.0
-2.3605 0.6983 0.043 3.0
-1.552 0.3887 -0.3694 1.0
-1.5235 0.39 -0.3631 1.0
-1.5304 0.3946 -0.3649 2.0
-1.5414 0.4064 -0.368 2.0
-1.552 0.4121 -0.3707 4.0
-1.5536 0.4212 -0.3716 5.0
-1.5528 0.4239 -0.3716 5.0
-1.5468 0.431 -0.3707 5.0
-1.5536 0.4358 -0.3725 7.0
-1.5494 0.4434 -0.3721 8.0
-1.5505 0.4467 -0.3725 9.0
-1.5481 0.455 -0.3725 9.0
-1.5491 0.4583 -0.373 10.0
-2.372 0.5029 0.1271 4.0
-2.3633 0.5053 0.1267 4.0
-2.3645 0.5186 0.1269 4.0
-2.348 0.5192 0.126 4.0
-2.353 0.5333 0.1264 3.0
-2.3599 0.5392 0.1269 4.0
-2.3649 0.5529 0.1273 3.0
-2.3678 0.558 0.1275 4.0
-2.3609 0.5698 0.1273 3.0
-2.3715 0.5768 0.1279 4.0
-2.3763 0.5907 0.1283 3.0
-2.3869 0.5978 0.129 3.0
-2.3915 0.6122 0.1294 2.0
-2.3904 0.6164 0.1294 3.0
-2.3677 0.6243 0.1283 3.0
-2.3705 0.6294 0.1285 2.0
-2.3864 0.647 0.1296 2.0
-2.3892 0.6523 0.1298 2.0
-2.3703 0.6605 0.129 1.0
-2.3769 0.6668 0.1294 1.0
-2.4079 0.6891 0.1313 1.0
-2.4029 0.6922 0.131 1.0
-2.3914 0.7029 0.1306 1.0
-2.3825 0.7048 0.1302 2.0
-1.7021 0.4743 -0.3435 1.0
-1.6861 0.473 -0.3404 1.0
-2.3506 0.4983 0.2102 3.0
-2.3419 0.5008 0.2095 3.0
-2.347 0.5147 0.2102 3.0
-2.35 0.5197 0.2106 3.0
-2.355 0.5338 0.2113 3.0
-2.3502 0.537 0.2109 3.0
-2.3475 0.5489 0.2109 3.0
-2.3543 0.5548 0.2116 3.0
-2.359 0.5694 0.2123 3.0
-2.3541 0.5726 0.212 3.0
-2.3512 0.5845 0.212 3.0
-2.3482 0.5881 0.2118 3.0
-2.3567 0.6033 0.2128 3.0
-2.3556 0.6075 0.2128 2.0
-2.3562 0.6212 0.2132 2.0
-2.3512 0.6243 0.2128 1.0
-2.3556 0.6387 0.2135 1.0
-2.366 0.6459 0.2146 1.0
-2.3741 0.6615 0.2156 1.0
-2.3998 0.6732 0.2181 1.0
-2.381 0.6814 0.2167 1.0
-2.3759 0.6844 0.2163 1.0
-2.3722 0.6973 0.2163 1.0
-2.3595 0.698 0.2153 1.0
-2.3512 0.52 -0.3814 1.0
-2.36 0.5349 -0.3833 1.0
-2.3513 0.5372 -0.382 1.0
-2.3332 0.5455 -0.3795 2.0
-2.3476 0.5532 -0.382 2.0
-2.3446 0.5659 -0.382 3.0
-2.3532 0.5723 -0.3836 3.0
-2.358 0.5862 -0.3848 3.0
-2.3531 0.5893 -0.3842 3.0
-2.3461 0.6006 -0.3836 3.0
-2.3489 0.6057 -0.3842 3.0
-2.3685 0.6245 -0.388 3.0
-2.356 0.6256 -0.3861 3.0
-2.3527 0.6379 -0.3861 3.0
-2.3516 0.642 -0.3861 3.0
-2.3501 0.6548 -0.3864 2.0
-2.3755 0.6664 -0.3908 3.0
-2.3606 0.6756 -0.3889 2.0
-2.3651 0.6813 -0.3898 3.0
-2.3519 0.6913 -0.3883 4.0
-2.3507 0.6954 -0.3883 3.0
-2.3653 0.5015 0.2969 3.0
-2.3683 0.5064 0.2974 3.0
-2.354 0.5163 0.2959 3.0
-2.3608 0.5221 0.2969 3.0
-2.3542 0.5336 0.2964 2.0
-2.361 0.5394 0.2974 3.0
-2.3543 0.5505 0.2969 3.0
-2.3457 0.5528 0.2959 3.0
-2.3658 0.571 0.2988 2.0
-2.3648 0.5752 0.2988 2.0
-2.3618 0.5871 0.2988 2.0
-2.3647 0.5922 0.2993 2.0
-2.3461 0.6006 0.2974 1.0
-2.3682 0.6107 0.3003 1.0
-2.3571 0.6215 0.2993 1.0
-2.3829 0.6327 0.3027 1.0
-2.3834 0.6462 0.3032 1.0
-2.3555 0.6431 0.2998 1.0
-2.3788 0.6628 0.3032 1.0
-2.393 0.6713 0.3052 1.0
-2.3932 0.6849 0.3056 1.0
-2.4073 0.6935 0.3076 1.0
-2.3921 0.7031 0.3061 1.0
-2.3908 0.7073 0.3061 1.0
-2.3497 0.4982 -0.2949 4.0
-2.3566 0.5039 -0.2959 4.0
-2.3559 0.5167 -0.2961 4.0
-2.3279 0.5148 -0.2927 3.0
-2.3503 0.5327 -0.2959 4.0
-2.3436 0.5355 -0.2952 3.0
-2.3485 0.5491 -0.2961 4.0
-2.3476 0.5532 -0.2961 4.0
-2.3349 0.5636 -0.2949 4.0
-2.3513 0.5719 -0.2971 3.0
-2.3484 0.5838 -0.2971 4.0
-2.3666 0.5927 -0.2996 3.0
-2.3558 0.6031 -0.2986 3.0
-2.3624 0.6092 -0.2996 2.0
-2.336 0.6159 -0.2966 3.0
-2.3656 0.6281 -0.3005 2.0
-2.3815 0.6457 -0.303 2.0
-2.365 0.6457 -0.301 2.0
-2.3616 0.658 -0.301 2.0
-2.3681 0.6643 -0.302 2.0
-2.3761 0.68 -0.3035 2.0
-2.3901 0.6885 -0.3054 2.0
-2.3673 0.6958 -0.303 2.0
-2.3737 0.7022 -0.3039 2.0
-2.3421 0.4965 0.3792 1.0
-2.3451 0.5015 0.3798 1.0
-2.3617 0.518 0.383 1.0
-2.3531 0.5204 0.3817 1.0
-2.3542 0.5336 0.3823 1.0
-2.3417 0.535 0.3804 1.0
-2.3582 0.5514 0.3836 1.0
-2.3572 0.5555 0.3836 1.0
-2.3772 0.5738 0.3873 1.0
-2.3455 0.5705 0.3823 1.0
-2.3426 0.5823 0.3823 1.0
-2.3608 0.5912 0.3855 1.0
-2.3653 0.6055 0.3867 1.0
-2.3757 0.6126 0.3886 1.0
-2.3447 0.4971 -0.2097 4.0
-2.3439 0.5012 -0.2097 4.0
-2.3646 0.5186 -0.2118 4.0
-2.35 0.5197 -0.2106 3.0
-2.357 0.5342 -0.2114 4.0
-2.3619 0.5396 -0.212 3.0
-2.3475 0.5489 -0.2109 3.0
-2.362 0.5566 -0.2123 3.0
-2.3745 0.5731 -0.2137 3.0
-2.3657 0.5754 -0.213 2.0
-2.3551 0.5854 -0.2123 3.0
-2.3695 0.5934 -0.2137 3.0
-2.3664 0.6058 -0.2137 3.0
-2.3653 0.6099 -0.2137 3.0
-2.3735 0.6258 -0.2148 2.0
-2.3647 0.6279 -0.2141 2.0
-2.3652 0.6413 -0.2144 3.0
-2.3795 0.6496 -0.2158 2.0
-2.3799 0.6631 -0.2161 2.0
-2.3826 0.6684 -0.2165 2.0
-2.3599 0.6754 -0.2148 2.0
-2.3893 0.6883 -0.2175 1.0
-2.3741 0.6978 -0.2165 2.0
-2.3882 0.7065 -0.2179 2.0
-2.3623 0.5008 0.4694 3.0
-2.3461 0.5017 0.4663 3.0
-2.3472 0.5148 0.4671 3.0
-2.3655 0.5231 0.4709 3.0
-2.3704 0.5372 0.4724 1.0
-2.3618 0.5396 0.4709 3.0
-2.3476 0.5489 0.4686 2.0
-2.3581 0.5557 0.4709 1.0
-2.3665 0.5712 0.4732 1.0
-2.3731 0.5772 0.4747 1.0
-2.3663 0.5882 0.474 1.0
-2.3729 0.5943 0.4755 1.0
-2.3736 0.6077 0.4763 1.0
-2.3801 0.6138 0.4778 1.0
-2.3882 0.6296 0.4801 1.0
-2.3795 0.6318 0.4785 1.0
-2.3761 0.6442 0.4785 1.0
-2.375 0.6484 0.4785 1.0
-2.3867 0.665 0.4816 1.0
-2.3818 0.6681 0.4808 1.0
-2.3933 0.6849 0.4839 1.0
-2.3884 0.702 0.4839 1.0
-2.37 0.5025 -0.127 4.0
-2.3594 0.5045 -0.1264 3.0
-2.3528 0.516 -0.1262 3.0
-2.3558 0.521 -0.1264 3.0
-2.3608 0.5351 -0.1269 3.0
-2.3754 0.5427 -0.1277 3.0
-2.3804 0.5566 -0.1281 3.0
-2.3795 0.5607 -0.1281 3.0
-2.3609 0.5698 -0.1273 3.0
-2.3832 0.5796 -0.1285 2.0
-2.3879 0.5936 -0.129 3.0
-2.3908 0.5987 -0.1292 2.0
-2.376 0.6083 -0.1285 2.0
-2.3711 0.6114 -0.1283 2.0
-2.3716 0.6253 -0.1285 2.0
-2.3898 0.6345 -0.1296 2.0
-2.3903 0.6481 -0.1298 2.0
-2.3853 0.6512 -0.1296 2.0
-2.405 0.6701 -0.1308 1.0
-2.3961 0.6722 -0.1304 1.0
-2.4041 0.688 -0.131 1.0
-2.3875 0.6878 -0.1302 1.0
-2.3703 0.6967 -0.1295 4.0
-2.394 0.7082 -0.1308 1.0
-2.3544 0.4991 0.5556 3.0
-2.3611 0.5049 0.5574 2.0
-2.347 0.5147 0.5547 1.0
-2.3309 0.5155 0.5511 1.0
-2.3396 0.5302 0.5538 1.0
-2.3728 0.5421 0.5619 1.0
-2.3473 0.5488 0.5565 1.0
-2.3501 0.5538 0.5574 1.0
-2.3622 0.5702 0.561 1.0
-2.3499 0.5715 0.5583 1.0
-2.3734 0.59 0.5646 1.0
-2.3648 0.5923 0.5628 1.0
-2.3655 0.6056 0.5637 1.0
-2.3418 0.6039 0.5583 1.0
-2.3536 0.6205 0.5619 1.0
-2.3675 0.6286 0.5655 1.0
-2.3454 0.6359 0.561 1.0
-2.3668 0.6462 0.5664 1.0
-2.3447 0.6533 0.5619 1.0
-2.3548 0.6606 0.5646 1.0
-2.37 0.6782 0.5691 1.0
-2.3688 0.6824 0.5691 1.0
-2.3688 0.6963 0.57 1.0
-2.3676 0.7004 0.57 1.0
-2.3455 0.4973 -0.0419 3.0
-2.3446 0.5014 -0.0419 3.0
-2.3635 0.5183 -0.0422 4.0
-2.3567 0.5212 -0.0421 3.0
-2.3422 0.5309 -0.0419 3.0
-2.3413 0.5349 -0.0419 3.0
-2.3541 0.5504 -0.0422 3.0
-2.361 0.5564 -0.0423 2.0
-2.3424 0.5654 -0.0421 2.0
-2.3453 0.5704 -0.0421 2.0
-2.354 0.5852 -0.0423 2.0
-2.3607 0.5912 -0.0425 2.0
-2.3615 0.6046 -0.0425 2.0
-2.3798 0.6137 -0.0429 2.0
-2.3416 0.6174 -0.0423 2.0
-2.3599 0.6266 -0.0426 1.0
-2.3604 0.64 -0.0427 2.0
-2.367 0.6462 -0.0428 2.0
-2.3713 0.6607 -0.043 2.0
-2.3547 0.6606 -0.0427 2.0
-2.3589 0.6751 -0.0428 2.0
-2.3693 0.6825 -0.043 2.0
-2.3521 0.6914 -0.0428 4.0
-2.3682 0.7006 -0.0431 1.0
-2.351 0.4984 0.6439 1.0
-2.3539 0.5033 0.645 1.0
-2.3437 0.514 0.6429 1.0
-2.3578 0.5214 0.647 1.0
-2.3626 0.5355 0.6491 1.0
-2.3466 0.5362 0.645 1.0
-2.3514 0.5498 0.647 1.0
-2.3655 0.5574 0.6512 1.0
-2.3624 0.5702 0.6512 1.0
-2.3614 0.5743 0.6512 1.0
-2.3604 0.5868 0.6517 1.0
-2.3518 0.589 0.6496 1.0
-2.3674 0.6061 0.6548 1.0
-2.3664 0.6102 0.6548 1.0
-2.362 0.6271 0.6548 1.0
-2.3586 0.6395 0.6548 1.0
-2.3687 0.6467 0.6579 1.0
-2.3913 0.6663 0.6652 1.0
-2.3755 0.6798 0.6621 1.0
-2.8003 0.8444 -0.7837 1.0
-2.7766 0.8425 -0.7775 3.0
-2.7759 0.8582 -0.7785 1.0
-1.6381 0.5096 -0.4597 1.0
-1.5581 0.4934 -0.4379 5.0
-1.5572 0.4961 -0.4379 6.0
-1.5491 0.5024 -0.4364 8.0
-1.5427 0.5033 -0.4348 8.0
-1.5693 0.5214 -0.4431 7.0
-1.5959 0.5334 -0.4509 10.0
-1.5858 0.5389 -0.4488 10.0
-1.5794 0.5398 -0.4472 7.0
-1.6713 0.5814 -0.4742 1.0
-2.7444 0.96 -0.779 8.0
-2.7431 0.9752 -0.7801 9.0
-2.7396 0.9793 -0.7796 8.0
-2.727 0.9915 -0.7775 9.0
-2.7198 0.9942 -0.7759 10.0
-2.7146 1.0085 -0.7759 9.0
-2.7237 1.0173 -0.779 8.0
-2.7111 1.0288 -0.777 8.0
-2.7057 1.0321 -0.7759 9.0
-2.7018 1.0474 -0.7765 12.0
-2.709 1.0557 -0.779 10.0
-2.3568 0.7107 0.043 3.0
-2.3709 0.7194 0.0432 1.0
-2.3671 0.7318 0.0432 3.0
-2.3582 0.7336 0.0431 2.0
-2.3659 0.7491 0.0433 2.0
-2.3684 0.7545 0.0434 2.0
-2.3568 0.7644 0.0432 2.0
-2.3516 0.7673 0.0432 1.0
-2.3588 0.7838 0.0434 2.0
-2.3802 0.7955 0.0438 1.0
-2.3686 0.8049 0.0437 1.0
-2.3672 0.8091 0.0437 1.0
-2.3628 0.8219 0.0437 1.0
-2.3651 0.8273 0.0437 1.0
-2.3646 0.8406 0.0438 1.0
-2.3782 0.8501 0.0441 1.0
-2.3698 0.8616 0.044 1.0
-2.3683 0.8658 0.044 1.0
-2.3525 0.874 0.0438 1.0
-2.366 0.8837 0.0441 1.0
-2.3651 0.8975 0.0442 1.0
-1.5486 0.467 -0.3734 10.0
-1.5608 0.4736 -0.3766 11.0
-1.5732 0.4864 -0.3802 11.0
-1.5575 0.4845 -0.3766 11.0
-1.5606 0.4941 -0.3779 11.0
-1.5746 0.5016 -0.3815 11.0
-1.583 0.5134 -0.3842 11.0
-1.6062 0.5241 -0.3901 12.0
-1.6034 0.5327 -0.3901 15.0
-1.5987 0.5343 -0.3892 11.0
-1.6034 0.5449 -0.391 10.0
-3.1828 1.0878 -0.7765 6.0
-3.1934 1.1108 -0.7806 8.0
-3.1712 1.1093 -0.7756 7.0
-3.1656 1.1253 -0.7756 8.0
-3.1728 1.1341 -0.7779 8.0
-3.1739 1.154 -0.7797 9.0
-3.1682 1.1582 -0.7788 8.0
-3.1512 1.1707 -0.7761 7.0
-3.1491 1.1761 -0.7761 8.0
-3.1502 1.1954 -0.7779 9.0
-3.1517 1.2023 -0.7788 7.0
-3.1506 1.2214 -0.7801 8.0
-3.1394 1.2234 -0.7779 6.0
-2.3864 0.7196 0.1306 1.0
-2.389 0.7249 0.1308 2.0
-2.4043 0.7433 0.1319 2.0
-2.3953 0.7451 0.1315 2.0
-2.3877 0.7561 0.1313 1.0
-2.3902 0.7614 0.1315 1.0
-2.4166 0.7838 0.1331 1.0
-2.4114 0.7868 0.1329 1.0
-2.3957 0.796 0.1323 1.0
-2.3944 0.8002 0.1323 1.0
-2.3978 0.8149 0.1327 1.0
-2.3889 0.8165 0.1323 1.0
-2.3844 0.8294 0.1323 1.0
-2.4244 0.8481 0.1346 1.0
-2.3975 0.8523 0.1334 1.0
-2.396 0.8565 0.1334 1.0
-2.3914 0.8694 0.1334 1.0
-2.3936 0.875 0.1336 1.0
-2.374 0.8819 0.1327 1.0
-2.4174 0.9029 0.1352 1.0
-2.379 0.9027 0.1334 1.0
-2.3886 0.9112 0.134 1.0
-2.4116 0.9349 0.1356 1.0
-2.4025 0.9362 0.1351 1.0
-1.662 0.5263 -0.3389 1.0
-2.3699 0.7874 -0.4854 1.0
-2.3573 0.7878 -0.4831 1.0
-2.3384 0.7947 -0.4801 1.0
-2.3482 0.8026 -0.4824 1.0
-2.3512 0.8179 -0.4839 1.0
-2.3646 0.8272 -0.4869 1.0
-2.3419 0.8325 -0.4831 1.0
-2.3663 0.8459 -0.4885 1.0
-2.3506 0.8546 -0.4862 1.0
-2.3528 0.8601 -0.4869 1.0
-2.3667 0.8792 -0.4908 1.0
-2.3725 0.8861 -0.4923 1.0
-2.3568 0.8943 -0.49 1.0
-2.3553 0.8984 -0.49 1.0
-2.3598 0.9196 -0.4923 1.0
-2.3864 0.7196 0.2181 1.0
-2.3698 0.7191 0.2167 1.0
-2.3851 0.7374 0.2184 1.0
-2.3876 0.7427 0.2188 1.0
-2.3724 0.7512 0.2177 1.0
-2.3825 0.759 0.2188 1.0
-2.3747 0.7702 0.2184 1.0
-2.3771 0.7756 0.2188 1.0
-2.3767 0.7897 0.2191 1.0
-2.3942 0.8002 0.2209 1.0
-2.3826 0.8097 0.2202 1.0
-2.3774 0.8126 0.2198 1.0
-2.3842 0.8293 0.2209 1.0
-2.3898 0.8496 0.2219 1.0
-2.3698 0.7146 -0.392 2.0
-2.3534 0.7141 -0.3895 2.0
-2.3496 0.7264 -0.3895 2.0
-2.3559 0.7329 -0.3908 1.0
-2.3597 0.7472 -0.392 2.0
-2.3828 0.7591 -0.3961 3.0
-2.3582 0.7648 -0.3927 2.0
-2.3531 0.7677 -0.392 2.0
-2.3489 0.7805 -0.392 2.0
-2.3662 0.7908 -0.3952 2.0
-2.3622 0.8028 -0.3952 3.0
-2.3683 0.8095 -0.3964 2.0
-2.3676 0.8236 -0.397 3.0
-2.3512 0.8225 -0.3945 3.0
-2.3731 0.8436 -0.3989 2.0
-2.3605 0.8438 -0.397 2.0
-2.3522 0.8552 -0.3964 2.0
-2.3655 0.8647 -0.3989 2.0
-2.3647 0.8785 -0.3995 2.0
-2.3816 0.8895 -0.4027 1.0
-2.3917 0.9076 -0.4052 2.0
-2.3864 0.9103 -0.4045 1.0
-2.3778 0.9218 -0.4039 1.0
-2.3688 0.9231 -0.4027 1.0
-2.4023 0.7244 0.3081 1.0
-2.3669 0.7182 0.3037 1.0
-2.4086 0.7447 0.3095 1.0
-2.3845 0.7418 0.3066 1.0
-2.3807 0.7538 0.3066 1.0
-2.4021 0.7652 0.3095 1.0
-2.4283 0.7876 0.3134 1.0
-2.3967 0.782 0.3095 1.0
-2.4075 0.7999 0.3115 1.0
-2.4212 0.8092 0.3134 1.0
-2.402 0.8163 0.3115 1.0
-2.4231 0.8282 0.3144 1.0
-2.4036 0.8361 0.3125 1.0
-2.4097 0.8429 0.3134 1.0
-2.4128 0.8578 0.3144 1.0
-2.4113 0.862 0.3144 1.0
-2.4141 0.8777 0.3154 1.0
-2.3977 0.8765 0.3134 1.0
-2.3856 0.8862 0.3125 1.0
-2.3878 0.8918 0.313 1.0
-2.4165 0.917 0.3173 1.0
-2.3926 0.9127 0.3144 1.0
-2.4172 0.9371 0.3183 1.0
-2.3934 0.9327 0.3154 1.0
-2.3624 0.7124 -0.303 2.0
-2.365 0.7176 -0.3035 2.0
-2.3763 0.7347 -0.3054 1.0
-2.3713 0.7377 -0.3049 2.0
-2.3524 0.7449 -0.303 3.0
-2.3511 0.749 -0.303 3.0
-2.3735 0.7698 -0.3064 2.0
-2.3835 0.7777 -0.3078 2.0
-2.3717 0.7881 -0.3069 2.0
-2.3741 0.7934 -0.3074 1.0
-2.3889 0.8118 -0.3098 1.0
-2.3875 0.816 -0.3098 1.0
-2.383 0.8289 -0.3098 1.0
-2.3853 0.8344 -0.3103 1.0
-2.381 0.8464 -0.3103 1.0
-2.3833 0.8519 -0.3108 1.0
-2.3861 0.8675 -0.3117 1.0
-2.3846 0.8717 -0.3117 1.0
-2.3874 0.8869 -0.3127 1.0
-2.3561 0.88 -0.3088 1.0
-2.3812 0.9036 -0.3127 1.0
-2.387 0.9106 -0.3137 1.0
-2.3932 0.9278 -0.3152 1.0
-2.3916 0.9319 -0.3152 1.0
-2.3806 0.7178 -0.2175 2.0
-2.3641 0.7174 -0.2161 1.0
-2.3603 0.7297 -0.2161 2.0
-2.3629 0.735 -0.2165 1.0
-2.3819 0.7542 -0.2186 1.0
-2.3768 0.7572 -0.2182 1.0
-2.369 0.7684 -0.2179 1.0
-2.3714 0.7737 -0.2182 1.0
-2.3861 0.7928 -0.22 1.0
-2.3885 0.7983 -0.2203 1.0
-2.3769 0.8078 -0.2196 1.0
-2.3717 0.8106 -0.2193 1.0
-2.3673 0.8235 -0.2193 1.0
-2.3734 0.8302 -0.22 1.0
-2.3842 0.8476 -0.2214 1.0
-2.3752 0.849 -0.2207 1.0
-2.3481 0.8537 -0.2186 1.0
-2.3803 0.8701 -0.2217 1.0
-2.3719 0.8812 -0.2214 1.0
-2.3816 0.8895 -0.2224 1.0
-2.4067 0.9133 -0.2252 1.0
-2.3567 0.899 -0.2207 1.0
-2.3815 0.9233 -0.2235 1.0
-2.3799 0.9274 -0.2235 1.0
-2.3859 0.724 0.4847 1.0
-2.3845 0.7418 0.4854 1.0
-2.3957 0.7586 0.4885 1.0
-2.3981 0.764 0.4892 1.0
-2.4053 0.7801 0.4915 1.0
-2.3704 0.7734 0.4847 1.0
-2.381 0.7911 0.4877 1.0
-2.3908 0.799 0.49 1.0
-2.3979 0.8149 0.4923 1.0
-2.3891 0.8166 0.4908 1.0
-2.3883 0.8308 0.4915 1.0
-2.3906 0.8362 0.4923 1.0
-2.3863 0.8483 0.4923 1.0
-2.3996 0.8578 0.4953 1.0
-2.3802 0.8654 0.4923 1.0
-2.3676 0.8655 0.49 1.0
-2.3851 0.8861 0.4946 1.0
-2.3799 0.8889 0.4938 1.0
-2.3899 0.9069 0.4969 1.0
-2.392 0.9124 0.4976 1.0
-2.3781 0.9267 0.4961 1.0
-2.4056 0.7254 -0.1317 1.0
-2.4043 0.7296 -0.1317 1.0
-2.3928 0.7398 -0.1313 1.0
-2.3991 0.7463 -0.1317 1.0
-2.3991 0.7597 -0.1319 1.0
-2.3978 0.7639 -0.1319 1.0
-2.3976 0.7776 -0.1321 1.0
-2.3962 0.7818 -0.1321 1.0
-2.3957 0.796 -0.1323 1.0
-2.3981 0.8015 -0.1325 1.0
-2.3789 0.8085 -0.1317 1.0
-2.3926 0.8178 -0.1325 1.0
-2.4033 0.836 -0.1334 1.0
-2.3867 0.8349 -0.1325 1.0
-2.405 0.855 -0.1338 1.0
-2.3998 0.8578 -0.1336 1.0
-2.3951 0.8708 -0.1336 1.0
-2.3673 0.8654 -0.1321 1.0
-2.389 0.8875 -0.1336 1.0
-2.3986 0.8959 -0.1342 1.0
-2.3902 0.907 -0.134 1.0
-2.4297 0.9268 -0.1363 1.0
-2.3836 0.9241 -0.134 1.0
-2.4118 0.9398 -0.1357 1.0
-2.3565 0.7106 0.5682 1.0
-2.3739 0.7203 0.5727 1.0
-2.3663 0.7316 0.5718 1.0
-2.3837 0.7415 0.5763 1.0
-2.3762 0.7524 0.5754 1.0
-2.3711 0.7554 0.5745 1.0
-2.3783 0.7714 0.5772 1.0
-2.3528 0.7863 0.5727 3.0
-2.3636 0.8032 0.5763 3.0
-2.3705 0.8427 0.5808 1.0
-2.3727 0.8481 0.5817 1.0
-2.3739 0.8678 0.5835 1.0
-2.373 0.8816 0.5844 1.0
-2.3714 0.8857 0.5844 1.0
-2.374 0.9009 0.5862 1.0
-2.3568 0.7107 -0.043 1.0
-2.3709 0.7194 -0.0432 1.0
-2.3671 0.7318 -0.0432 1.0
-2.3696 0.7371 -0.0433 1.0
-2.3849 0.7552 -0.0437 1.0
-2.3607 0.752 -0.0432 1.0
-2.372 0.7693 -0.0435 1.0
-2.382 0.7772 -0.0437 1.0
-2.3702 0.7875 -0.0436 1.0
-2.3764 0.7942 -0.0437 1.0
-2.3837 0.8101 -0.0439 1.0
-2.3785 0.813 -0.0439 1.0
-2.3741 0.8258 -0.0439 1.0
-2.3915 0.8366 -0.0442 1.0
-2.3722 0.8433 -0.0439 1.0
-2.3632 0.8447 -0.0438 1.0
-2.3811 0.8657 -0.0442 1.0
-2.3646 0.8644 -0.0439 1.0
-2.375 0.8823 -0.0442 1.0
-2.381 0.8893 -0.0444 1.0
-2.3613 0.896 -0.0441 1.0
-2.371 0.9044 -0.0443 1.0
-2.3772 0.9216 -0.0445 1.0
-2.4017 0.9359 -0.045 1.0
-2.3644 0.7175 0.6621 1.0
-2.3717 0.7332 0.6652 1.0
-2.3925 0.7443 0.6714 1.0
-2.385 0.7552 0.6703 1.0
-2.3834 0.773 0.6714 1.0
-2.382 0.7772 0.6714 1.0
-2.3998 0.7974 0.6776 1.0
-2.3797 0.8087 0.6734 1.0
-2.3819 0.8141 0.6745 1.0
-2.3811 0.8283 0.6755 1.0
-2.3906 0.8362 0.6786 1.0
-2.7052 1.0705 -0.7796 11.0
-2.698 1.0731 -0.778 9.0
-2.6834 1.0836 -0.7754 9.0
-2.6851 1.0897 -0.7765 10.0
-2.6829 1.1053 -0.7775 9.0
-2.6935 1.1151 -0.7811 9.0
-2.6805 1.1262 -0.779 8.0
-2.6642 1.1249 -0.7749 9.0
-2.6617 1.1408 -0.7759 10.0
-2.665 1.1477 -0.7775 8.0
-2.666 1.1648 -0.7796 8.0
-2.6605 1.1679 -0.7785 8.0
-2.6473 1.1786 -0.7765 12.0
-2.6487 1.1848 -0.7775 9.0
-2.646 1.2003 -0.7785 11.0
-2.6492 1.2073 -0.7801 9.0
-2.631 1.2146 -0.7765 10.0
-2.6323 1.2208 -0.7775 9.0
-2.6242 1.2337 -0.777 8.0
-2.6272 1.2408 -0.7785 9.0
-2.6255 1.2579 -0.7801 8.0
-2.6181 1.26 -0.7785 9.0
-2.6045 1.2703 -0.7765 11.0
-2.6092 1.2782 -0.7785 9.0
-3.1294 1.2384 -0.777 8.0
-3.1399 1.2489 -0.7801 8.0
-3.1279 1.2631 -0.7788 9.0
-3.122 1.2671 -0.7779 7.0
-3.1082 1.2805 -0.7761 8.0
-3.1113 1.2881 -0.7774 8.0
-3.1063 1.3051 -0.7779 9.0
-3.1184 1.3166 -0.7815 8.0
-3.1005 1.3289 -0.7788 8.0
-3.0982 1.3343 -0.7788 9.0
-3.0858 1.3481 -0.7774 10.0
-3.0888 1.3559 -0.7788 9.0
-3.0852 1.3736 -0.7797 8.0
-3.0828 1.379 -0.7797 8.0
-3.072 1.3935 -0.7788 8.0
-3.0713 1.3997 -0.7792 10.0
-3.0627 1.4139 -0.7788 9.0
-3.0637 1.4208 -0.7797 9.0
-3.0563 1.4369 -0.7797 9.0
-3.0485 1.4397 -0.7783 10.0
-3.0386 1.4559 -0.7779 9.0
-3.0466 1.4662 -0.7806 8.0
-3.0389 1.4822 -0.7806 8.0
-3.0398 1.4892 -0.7815 9.0
-2.3716 0.9385 0.1337 1.0
-2.4256 0.9648 0.1368 1.0
-2.3946 0.967 0.1353 1.0
-2.4077 0.9772 0.1362 1.0
-2.4173 0.9959 0.137 1.0
-2.4266 1.0047 0.1376 1.0
-2.4287 1.0204 0.1381 1.0
-2.4196 1.0216 0.1376 1.0
-2.4507 1.0504 0.1397 1.0
-2.4489 1.0547 0.1397 1.0
-2.4433 1.0675 0.1397 1.0
-2.4415 1.0717 0.1397 1.0
-2.4358 1.0845 0.1397 1.0
-2.4339 1.0887 0.1397 1.0
-2.3566 0.9901 -0.4969 1.0
-2.3657 0.9988 -0.4992 1.0
-2.3933 0.9471 -0.4077 1.0
-2.3745 0.9831 -0.407 1.0
-2.3885 0.9452 0.3154 1.0
-2.4164 0.9611 0.3193 1.0
-2.4297 0.9812 0.3217 1.0
-2.428 0.9854 0.3217 1.0
-2.4008 0.989 0.3188 1.0
-2.399 0.9932 0.3188 1.0
-2.4341 1.0227 0.3242 1.0
-2.414 1.0192 0.3217 1.0
-2.4997 1.0714 0.3339 1.0
-2.4066 1.0365 0.3217 1.0
-2.4012 1.049 0.3217 1.0
-2.4902 1.0931 0.3339 1.0
-2.4373 1.0852 0.3276 1.0
-2.4825 1.1105 0.3339 1.0
-2.4477 1.1103 0.33 1.0
-2.4097 1.0982 0.3251 1.0
-2.4692 1.1399 0.3339 1.0
-2.4672 1.1442 0.3339 1.0
-2.4612 1.1571 0.3339 1.0
-2.3945 1.1309 0.3251 1.0
-2.4526 1.1751 0.3339 1.0
-2.4505 1.1794 0.3339 1.0
-2.4443 1.1922 0.3339 1.0
-2.4423 1.1964 0.3339 1.0
-2.3719 0.9386 -0.3132 1.0
-2.3961 0.953 -0.3166 1.0
-2.4242 0.9789 -0.321 1.0
-2.4114 0.9787 -0.3195 1.0
-2.3953 0.9868 -0.3181 1.0
-2.3862 0.9879 -0.3171 1.0
-2.3663 0.9942 -0.3152 1.0
-2.4085 1.0169 -0.321 1.0
-2.4139 1.0346 -0.3225 1.0
-2.4157 1.0404 -0.323 1.0
-2.4139 1.0546 -0.3234 1.0
-2.4121 1.0588 -0.3234 1.0
-2.4065 1.0714 -0.3234 1.0
-2.4336 1.0886 -0.3273 1.0
-2.4279 1.1013 -0.3273 1.0
-2.4043 1.0957 -0.3244 1.0
-2.3917 1.1041 -0.3234 1.0
-2.4186 1.1216 -0.3273 1.0
-2.4126 1.1343 -0.3273 1.0
-2.4107 1.1385 -0.3273 1.0
-2.4043 1.1519 -0.3273 1.0
-2.4023 1.1561 -0.3273 1.0
-2.3962 1.1687 -0.3273 1.0
-2.4191 1.1851 -0.3308 1.0
-2.375 0.9399 -0.2235 1.0
-2.3919 0.9514 -0.2252 1.0
-2.3943 0.9669 -0.2259 1.0
-2.3778 0.9651 -0.2245 1.0
-2.3948 0.9866 -0.2266 1.0
-2.4152 0.9999 -0.2287 1.0
-2.4173 1.0156 -0.2294 1.0
-2.3935 1.0106 -0.2273 1.0
-2.4209 1.0376 -0.2304 1.0
-2.4191 1.0418 -0.2304 1.0
-2.4027 1.0497 -0.2294 1.0
-2.4118 1.0587 -0.2304 1.0
-2.3807 1.06 -0.228 1.0
-2.4007 1.0739 -0.2301 1.0
-2.3951 1.0864 -0.2301 1.0
-2.4149 1.1005 -0.2322 1.0
-2.4095 1.1123 -0.2322 1.0
-2.4076 1.1165 -0.2322 1.0
-2.4305 1.1427 -0.235 1.0
-2.4357 1.1503 -0.2357 1.0
-2.4149 1.157 -0.2343 1.0
-2.3913 1.1509 -0.2322 1.0
-2.3853 1.1634 -0.2322 1.0
-2.4298 1.1903 -0.2367 1.0
-2.4143 0.9554 -0.1361 1.0
-2.4015 0.9552 -0.1354 1.0
-2.4594 0.9932 -0.139 1.0
-2.4318 0.9869 -0.1375 1.0
-2.4339 1.0027 -0.138 1.0
-2.3916 0.9901 -0.1357 1.0
-2.4121 1.0135 -0.1371 1.0
-2.4325 1.027 -0.1384 1.0
-2.4342 1.0433 -0.1388 1.0
-2.4177 1.0412 -0.138 1.0
-2.4122 1.0539 -0.138 1.0
-2.3994 1.0533 -0.1373 1.0
-2.4413 1.0869 -0.1401 1.0
-2.4394 1.0912 -0.1401 1.0
-2.3973 1.0875 -0.138 1.0
-2.4317 1.1082 -0.1401 1.0
-2.4263 1.1201 -0.1401 1.0
-2.4243 1.1243 -0.1401 1.0
-2.4184 1.137 -0.1401 1.0
-2.4164 1.1412 -0.1401 1.0
-2.408 1.1589 -0.1401 1.0
-2.3998 1.1757 -0.1401 1.0
-2.3782 0.9411 -0.0446 1.0
-2.3765 0.9453 -0.0446 1.0
-2.3901 0.9652 -0.045 1.0
-2.3699 0.9618 -0.0446 1.0
-2.3648 0.9742 -0.0446 1.0
-2.4 0.9936 -0.0453 1.0
-2.3764 0.9984 -0.045 1.0
-2.4188 1.0213 -0.0458 1.0
-2.4133 1.0343 -0.0458 1.0
-2.4592 1.0591 -0.0467 1.0
-2.406 1.0512 -0.0458 1.0
-2.4518 1.0763 -0.0467 1.0
-2.4461 1.0891 -0.0467 1.0
-2.4442 1.0933 -0.0467 1.0
-2.4384 1.1061 -0.0467 1.0
-2.4365 1.1104 -0.0467 1.0
-2.4232 1.1392 -0.0467 1.0
-2.4212 1.1434 -0.0467 1.0
-2.4127 1.1612 -0.0467 1.0
-2.4066 1.1738 -0.0467 1.0
-2.6062 1.2932 -0.7796 11.0
-2.6108 1.3011 -0.7816 9.0
-2.59 1.3083 -0.7775 8.0
-2.5928 1.3154 -0.779 8.0
-2.5773 1.3246 -0.7765 10.0
-2.5853 1.3344 -0.7796 9.0
-2.5783 1.3479 -0.7796 8.0
-2.5828 1.356 -0.7816 7.0
-2.5566 1.36 -0.7759 7.0
-1.9698 1.0522 -0.5984 6.0
-1.9422 1.0506 -0.5917 4.0
-1.9386 1.053 -0.5911 2.0
-1.9229 1.0576 -0.588 1.0
-1.9143 1.0572 -0.586 1.0
-1.9256 1.0766 -0.5911 1.0
-1.9136 1.0743 -0.588 1.0
-1.9113 1.0862 -0.5891 1.0
-1.9061 1.0877 -0.588 1.0
-1.9004 1.0976 -0.588 1.0
-1.9018 1.1029 -0.5891 1.0
-1.9027 1.1167 -0.5911 1.0
-1.9174 1.1299 -0.5963 1.0
-1.8946 1.1303 -0.5911 1.0
-1.8893 1.1316 -0.5901 1.0
-3.02 1.4985 -0.7783 7.0
-3.0104 1.5003 -0.7765 7.0
-3.0144 1.5227 -0.7797 8.0
-3.0187 1.5315 -0.7815 8.0
-3.0037 1.5437 -0.7797 8.0
-2.9958 1.5463 -0.7783 8.0
-2.9929 1.5646 -0.7797 8.0
-2.9918 1.5708 -0.7801 7.0
-2.9953 1.5933 -0.7833 9.0
-2.984 1.594 -0.781 7.0
-2.9602 1.6012 -0.777 7.0
-2.9659 1.611 -0.7792 7.0
-2.9591 1.6275 -0.7797 7.0
-2.9614 1.6355 -0.781 7.0
-2.9545 1.6519 -0.7815 8.0
-2.938 1.6494 -0.7779 6.0
-2.9294 1.6648 -0.7779 8.0
-2.9078 1.6593 -0.7729 10.0
-2.9092 1.6803 -0.7756 14.0
-2.8962 1.6795 -0.7729 12.0
-2.8857 1.6937 -0.7725 8.0
-2.9029 1.7106 -0.7779 6.0
-2.9069 1.7343 -0.7815 6.0
-2.9139 1.7453 -0.7842 6.0
-2.4757 1.2998 0.1465 1.0
-2.5321 1.3469 0.1503 1.0
-2.5009 1.404 0.1503 1.0
-2.4935 1.4171 0.1503 1.0
-2.4836 1.4345 0.1503 1.0
-2.3882 1.185 -0.3273 1.0
-2.3861 1.1891 -0.3273 1.0
-2.4151 1.2199 -0.3322 1.0
-2.4129 1.2241 -0.3322 1.0
-2.4241 1.2458 -0.3347 1.0
-2.369 1.2228 -0.3273 1.0
-2.3978 1.2535 -0.3322 1.0
-2.3956 1.2577 -0.3322 1.0
-2.3993 1.2763 -0.3337 1.0
-2.4391 1.3029 -0.3395 1.0
-2.4566 1.3289 -0.3429 1.0
-2.4299 1.3199 -0.3395 1.0
-2.4021 1.3211 -0.3366 1.0
-2.3963 1.3234 -0.3361 1.0
-2.4112 1.3537 -0.3395 1.0
-2.4259 1.3843 -0.3429 1.0
-2.478 1.437 -0.3517 1.0
-2.3773 1.1796 -0.2322 1.0
-2.4038 1.198 -0.235 1.0
-2.3973 1.2109 -0.235 1.0
-2.4022 1.2187 -0.2357 1.0
-2.3746 1.2204 -0.2336 3.0
-2.3583 1.2172 -0.2322 1.0
-2.4401 1.2757 -0.2409 1.0
-2.4379 1.2799 -0.2409 1.0
-2.4556 1.3062 -0.2433 1.0
-2.4076 1.2861 -0.2388 1.0
-2.5095 1.3574 -0.2496 1.0
-2.5071 1.3618 -0.2496 1.0
-2.4903 1.3923 -0.2496 1.0
-2.4805 1.4097 -0.2496 1.0
-2.4681 1.4313 -0.2496 1.0
-2.3678 1.3897 -0.2402 3.0
-2.41 1.4202 -0.2447 2.0
-2.3918 1.192 -0.1401 1.0
-2.4031 1.2139 -0.1411 1.0
-2.4883 1.2843 -0.1468 1.0
-2.3986 1.1901 -0.0467 1.0
-2.39 1.2073 -0.0467 1.0
-2.3879 1.2114 -0.0467 1.0
-2.3815 1.2239 -0.0467 1.0
-2.364 1.2575 -0.0467 1.0
-2.4499 1.3087 -0.0485 1.0
-2.5116 1.4043 -0.0502 1.0
-2.4993 1.4261 -0.0502 1.0
-2.4893 1.4436 -0.0502 1.0
-2.4817 1.4566 -0.0502 1.0
-2.4712 1.4743 -0.0502 1.0
-1.9098 1.1575 -0.5984 1.0
-1.9045 1.1589 -0.5974 1.0
-1.9148 1.1789 -0.6025 1.0
-1.9095 1.1803 -0.6015 1.0
-1.8965 1.1865 -0.5994 1.0
-1.8977 1.1918 -0.6005 1.0
-1.9047 1.2097 -0.6046 1.0
-1.9091 1.2172 -0.6067 1.0
-1.8928 1.2212 -0.6036 1.0
-1.9036 1.2329 -0.6077 1.0
-1.9135 1.2531 -0.6129 1.0
-1.9113 1.2565 -0.6129 1.0
-1.9111 1.2707 -0.615 1.0
-1.9025 1.2698 -0.6129 1.0
-1.9086 1.2884 -0.617 1.0
-1.9032 1.2895 -0.616 1.0
-1.8959 1.3001 -0.616 1.0
-1.9128 1.3166 -0.6222 1.0
-1.9093 1.3285 -0.6232 1.0
-1.9069 1.3318 -0.6232 1.0
-1.9094 1.3484 -0.6263 1.0
-2.0394 1.4456 -0.6698 2.0
-2.3223 1.6645 -0.7656 4.0
-2.3398 1.6832 -0.7723 7.0
-2.3844 1.7089 0.0512 2.0
-2.8998 1.7575 -0.7828 7.0
-2.9 1.7646 -0.7837 7.0
-2.8858 1.7767 -0.7824 7.0
-2.8876 1.7848 -0.7837 9.0
-2.8746 1.7984 -0.7828 7.0
-2.8748 1.8054 -0.7837 6.0
-2.859 1.8158 -0.7819 6.0
-2.8624 1.825 -0.7837 8.0
-2.8476 1.8373 -0.7824 6.0
-2.8509 1.8465 -0.7842 6.0
-2.8415 1.8609 -0.7842 6.0
-2.8318 1.8615 -0.7824 6.0
-2.8188 1.8742 -0.7815 7.0
-2.8187 1.8813 -0.7824 8.0
-2.8104 1.8971 -0.7828 7.0
-2.8087 1.9031 -0.7833 6.0
-2.7949 1.9165 -0.7824 6.0
-2.7963 1.9247 -0.7837 8.0
-2.7817 1.9355 -0.7824 7.0
-2.7911 1.9493 -0.786 9.0
-2.7682 1.9549 -0.7824 8.0
-2.7489 1.9485 -0.7779 11.0
-2.7275 1.9549 -0.7747 12.0
-2.7178 1.9551 -0.7729 6.0
-2.4042 1.7231 0.155 1.0
-3.3292 2.1802 -0.7735 8.0
-3.3385 2.1946 -0.7766 8.0
-3.3237 2.2099 -0.7758 8.0
-3.3035 2.2048 -0.772 9.0
-3.2951 2.2243 -0.7728 9.0
-3.2961 2.2333 -0.7739 9.0
-3.2917 2.2572 -0.7758 8.0
-3.2878 2.263 -0.7758 8.0
-3.273 2.2774 -0.7751 8.0
-2.4525 1.7577 0.3705 1.0
-2.3833 1.7145 -0.3605 1.0
-2.3763 1.7031 0.463 1.0
-2.4608 1.4915 -0.0502 1.0
-2.381 1.6072 0.7697 1.0
-2.3388 1.7011 -0.7749 8.0
-2.3467 1.7131 -0.7785 8.0
-2.3464 1.7331 -0.7816 9.0
-2.3512 1.743 -0.7842 9.0
-2.3364 1.7498 -0.7822 8.0
-2.3318 1.7527 -0.7816 9.0
-2.3177 1.7618 -0.7801 8.0
-2.3162 1.767 -0.7806 8.0
-2.3133 1.7834 -0.7827 8.0
-2.3163 1.7922 -0.7847 8.0
-2.299 1.7987 -0.7822 9.0
-2.2973 1.8039 -0.7827 9.0
-2.2876 1.8163 -0.7827 9.0
-2.2889 1.8239 -0.7842 8.0
-2.2751 1.8319 -0.7827 9.0
-2.2704 1.8346 -0.7822 8.0
-2.2653 1.8502 -0.7837 8.0
-2.2531 1.8468 -0.7806 8.0
-2.2579 1.8712 -0.7858 8.0
-2.2547 1.8752 -0.7858 9.0
-2.2348 1.8779 -0.7822 8.0
-2.2271 1.878 -0.7806 8.0
-2.2136 1.8879 -0.7796 4.0
-2.1692 1.8566 -0.7651 1.0
-39.5483 29.2109 0.8582 13.0
-39.8507 29.5418 0.8659 13.0
-39.6739 29.7123 0.8652 13.0
-40.893 31.0845 0.8966 14.0
-46.5081 35.481 1.0211 19.0
-41.4955 32.1061 0.9158 15.0
-45.583 35.6646 1.0102 19.0
-44.9103 35.7873 1.0024 76.0
-44.8313 36.0969 1.0047 19.0
-44.2685 36.156 0.9977 18.0
-44.0785 36.1293 0.9948 75.0
-43.8023 36.3009 0.993 75.0
-43.7051 36.3491 0.9922 75.0
-43.4685 36.5261 0.9911 37.0
-43.3527 36.5581 0.9899 37.0
-2.665 1.9383 -0.7608 3.0
-2.3562 1.7201 -0.6735 1.0
-2.3121 1.7077 -0.6636 1.0
-2.3028 1.7071 -0.6618 1.0
-2.282 1.709 -0.6582 1.0
-2.2759 1.7107 -0.6573 1.0
-2.2604 1.7182 -0.6555 1.0
-2.2264 1.6985 -0.6465 1.0
-2.2085 1.7026 -0.6438 1.0
-2.2148 1.7136 -0.6465 1.0
-2.1901 1.7136 -0.642 1.0
-2.1718 1.7054 -0.6375 1.0
-2.1534 1.7098 -0.6348 1.0
-2.1235 1.7098 -0.6294 1.0
-2.1251 1.7172 -0.6308 1.0
-2.1085 1.7221 -0.6285 1.0
-2.1025 1.7233 -0.6276 1.0
-2.0961 1.7371 -0.6285 1.0
-2.6085 2.1695 -0.7833 5.0
-1.935 1.6562 -0.588 1.0
-47.3502 35.4611 3.1003 30.0
-47.0232 35.3445 3.0829 30.0
-46.6468 35.4582 3.0708 29.0
-46.4419 35.4305 3.0613 29.0
-46.0532 35.5042 3.0475 59.0
-45.8585 35.4818 3.0387 58.0
-45.5337 35.6261 3.0299 58.0
-45.3678 35.6241 3.023 29.0
-45.0399 35.7622 3.014 58.0
-44.8618 35.7486 3.0063 86.0
-44.5714 35.8876 2.999 57.0
-44.4496 35.9176 2.995 100.0
-44.162 36.069 2.9883 100.0
-44.0433 36.1004 2.9845 100.0
-43.7828 36.2847 2.9801 100.0
-43.6764 36.3253 2.9772 100.0
-43.44 36.5022 2.9736 100.0
-43.3396 36.5471 2.9711 100.0
-43.1029 36.7613 2.9689 100.0
-43.0113 36.8131 2.967 100.0
-3.2174 2.3487 -0.7743 8.0
-3.2137 2.3736 -0.7766 8.0
-3.2048 2.3757 -0.7754 9.0
-3.1837 2.3843 -0.7732 9.0
-3.1858 2.3946 -0.7747 9.0
-3.1759 2.4142 -0.7754 3.0
-2.1864 1.7106 -0.5396 1.0
-2.1988 1.7266 -0.5434 1.0
-2.1802 1.7311 -0.5411 1.0
-3.1337 2.4972 -0.7789 6.0
-3.1042 2.4994 -0.7747 9.0
-3.1029 2.5073 -0.7754 9.0
-3.0928 2.526 -0.7762 9.0
-3.0945 2.5364 -0.7777 9.0
-3.0716 2.5456 -0.7754 9.0
-3.0641 2.5484 -0.7747 9.0
-3.0542 2.5664 -0.7754 9.0
-3.0527 2.5743 -0.7762 9.0
-3.0443 2.5964 -0.7777 9.0
-3.0368 2.5991 -0.777 9.0
-71.7998 55.3532 7.9317 56.0
-3.9111 3.0152 -0.7822 8.0
-3.9121 3.0269 -0.7834 8.0
-3.8879 3.0419 -0.7819 8.0
-3.8826 3.0487 -0.7819 8.0
-3.8614 3.066 -0.7809 8.0
-3.8606 3.0764 -0.7819 8.0
-3.8512 3.1008 -0.7831 8.0
-3.8396 3.1026 -0.7819 8.0
-3.8141 3.1152 -0.78 8.0
-3.8087 3.1218 -0.78 8.0
-3.7993 3.1487 -0.7815 8.0
-3.806 3.1654 -0.784 8.0
-3.7854 3.1808 -0.7831 8.0
-3.7708 3.1798 -0.7812 10.0
-3.7545 3.2021 -0.7815 9.0
-3.7504 3.2099 -0.7819 8.0
-2.3759 1.7281 -0.3607 4.0
-5.1128 3.7764 -0.7805 13.0
-5.103 3.7829 -0.78 28.0
-5.0893 3.8114 -0.7807 35.0
-5.0874 3.8239 -0.7814 37.0
-5.0729 3.8561 -0.7824 37.0
-5.0583 3.859 -0.7812 37.0
-5.0293 3.8772 -0.7797 37.0
-5.0288 3.8909 -0.7807 30.0
-5.0155 3.9241 -0.7819 33.0
-5.0148 3.9378 -0.7829 28.0
-4.995 3.9661 -0.7831 16.0
-4.9834 3.9711 -0.7824 15.0
-4.9586 3.9925 -0.7817 13.0
-4.9671 4.0137 -0.7841 13.0
-4.9429 4.0371 -0.7836 13.0
-4.9282 4.0394 -0.7824 13.0
-4.9017 4.0622 -0.7817 13.0
-4.8885 4.0657 -0.7807 13.0
-4.8861 4.1057 -0.7836 13.0
-4.8713 4.1079 -0.7824 12.0
-4.8543 4.1401 -0.7834 13.0
-4.8381 4.1409 -0.7819 12.0
-7.2189 5.2699 -0.782 7.0
-7.2102 5.3256 -0.7842 9.0
-7.2041 5.3405 -0.7846 9.0
-7.1779 5.3756 -0.7846 9.0
-7.1685 5.3882 -0.7846 9.0
-7.1266 5.4172 -0.7832 9.0
-7.1235 5.4345 -0.7839 9.0
-7.1022 5.4753 -0.7846 9.0
-7.0926 5.4877 -0.7846 9.0
-7.0534 5.5187 -0.7835 9.0
-7.0563 5.5408 -0.7849 9.0
-7.0247 5.5777 -0.7848 7.0
-7.0336 5.6048 -0.7868 9.0
-6.9865 5.6254 -0.7848 7.0
-6.9798 5.64 -0.7851 7.0
-6.9548 5.6803 -0.7856 9.0
-6.948 5.6949 -0.786 9.0
-6.9324 5.7452 -0.7877 9.0
-6.9132 5.7496 -0.7867 9.0
-6.887 5.7871 -0.787 9.0
-6.886 5.8068 -0.7881 9.0
-6.8535 5.8452 -0.7881 9.0
-6.8615 5.8727 -0.7902 9.0
-12.3712 9.0312 -0.8027 9.0
-12.3078 9.0906 -0.8019 9.0
-12.3015 9.1193 -0.8025 9.0
-12.2568 9.1793 -0.8025 9.0
-12.2439 9.203 -0.8027 9.0
-12.194 9.2691 -0.8027 9.0
-12.1746 9.288 -0.8025 9.0
-12.1243 9.3471 -0.8023 9.0
-12.1237 9.3804 -0.8034 9.0
-12.0744 9.4471 -0.8035 9.0
-12.0626 9.4719 -0.8038 9.0
-12.0237 9.5469 -0.8046 9.0
-12.007 9.5679 -0.8046 9.0
-11.9677 9.6361 -0.8052 9.0
-11.954 9.6595 -0.8055 9.0
-11.8971 9.7169 -0.805 9.0
-11.8677 9.7275 -0.8042 9.0
-11.818 9.7941 -0.8044 9.0
-11.8101 9.8224 -0.805 9.0
-11.7603 9.882 -0.805 9.0
-11.746 9.9051 -0.8052 9.0
-11.6875 9.968 -0.805 9.0
-11.6913 10.0065 -0.8065 9.0
-37.0555 27.4697 -0.8051 9.0
-36.1648 27.4904 -0.7929 9.0
-36.0151 27.4759 -0.7907 8.0
-35.8597 27.6456 -0.7903 8.0
-35.7545 27.6641 -0.7891 8.0
-35.5885 27.8448 -0.7887 8.0
-35.4581 27.8427 -0.7869 8.0
-35.3006 28.0291 -0.7868 8.0
-35.2298 28.0733 -0.7863 8.0
-35.0872 28.2512 -0.7863 8.0
-35.0845 28.3501 -0.7873 8.0
-34.9015 28.5056 -0.7866 8.0
-34.8858 28.5944 -0.7873 8.0
-34.8229 28.8592 -0.7894 8.0
-34.7725 28.92 -0.7894 8.0
-34.7206 29.1754 -0.7916 8.0
-34.8806 29.4138 -0.7964 9.0
-34.7158 29.6082 -0.7964 9.0
-34.8342 29.8143 -0.8003 9.0
-1.9166 1.682 -0.6833 5.0
-1.9383 1.7071 -0.6921 19.0
-1.9236 1.7121 -0.69 46.0
-1.9306 1.7419 -0.6967 1.0
-2.0421 1.849 -0.7382 1.0
-2.1503 1.9683 -0.7811 3.0
-2.1497 1.9747 -0.7822 3.0
-2.1379 1.9846 -0.7816 3.0
-2.1288 1.9831 -0.7796 3.0
-2.1223 1.9985 -0.7811 3.0
-2.1188 2.0022 -0.7811 6.0
-2.1236 2.028 -0.7868 7.0
-2.1173 2.029 -0.7858 8.0
-2.1028 2.0357 -0.7842 9.0
-2.0979 2.038 -0.7837 8.0
-2.0927 2.0544 -0.7858 8.0
-2.0946 2.0634 -0.7878 9.0
-2.0807 2.072 -0.7868 8.0
-2.0689 2.0674 -0.7837 9.0
-2.058 2.0782 -0.7837 8.0
-2.0544 2.0818 -0.7837 9.0
-42.7254 37.0883 0.9876 74.0
-38.398 33.8167 0.8931 14.0
-42.2491 37.6029 0.9872 92.0
-42.1864 37.6792 0.9873 92.0
-42.0233 37.9177 0.988 74.0
-41.8108 38.4066 0.991 74.0
-41.6091 38.625 0.991 93.0
-41.5768 38.7303 0.9918 74.0
-41.4278 39.0123 0.9933 75.0
-41.441 39.1614 0.9952 75.0
-41.3077 39.4469 0.997 75.0
-41.3254 39.602 0.9991 76.0
-41.0469 39.7355 0.9972 18.0
-42.881 42.2421 1.0507 84.0
-42.6943 42.5159 1.0517 85.0
-42.4701 42.4405 1.048 63.0
-42.1122 42.5259 1.0447 83.0
-41.8863 42.4456 1.0409 82.0
-1.9381 1.6765 -0.5916 1.0
-1.9352 1.6799 -0.5916 1.0
-1.9349 1.698 -0.5943 1.0
-1.9231 1.6937 -0.5916 1.0
-1.9113 1.7011 -0.5907 1.0
-1.92 1.7148 -0.5943 1.0
-1.9199 1.7324 -0.597 1.0
-1.9227 1.7409 -0.5988 1.0
-2.5058 2.3018 -0.7855 6.0
-2.5023 2.3228 -0.7882 8.0
-2.4911 2.3205 -0.786 6.0
-2.4842 2.3393 -0.7878 8.0
-2.4687 2.3329 -0.7842 7.0
-2.4537 2.3431 -0.7833 8.0
-2.458 2.3555 -0.786 6.0
-2.4517 2.3733 -0.7878 6.0
-2.4517 2.3817 -0.7891 8.0
-2.4225 2.3781 -0.7837 7.0
-2.4198 2.3837 -0.7842 8.0
-2.4179 2.4078 -0.7878 6.0
-2.4178 2.4161 -0.7891 7.0
-2.401 2.4246 -0.7878 8.0
-2.3858 2.4177 -0.7842 6.0
-42.7968 37.0195 2.9656 100.0
-42.7261 37.0889 2.9651 100.0
-42.5218 37.3169 2.9649 100.0
-42.4536 37.3884 2.9647 100.0
-42.2513 37.6049 2.9643 100.0
-42.1916 37.6839 2.9647 100.0
-42.024 37.9184 2.9664 100.0
-41.9785 38.0104 2.9679 100.0
-41.7958 38.2586 2.9695 100.0
-41.7584 38.3585 2.9716 100.0
-41.6155 38.631 2.9758 100.0
-41.6065 38.758 2.98 100.0
-41.4602 39.0428 2.9846 100.0
-41.45 39.17 2.9888 100.0
-41.3224 39.4609 2.9945 100.0
-41.3457 39.6214 3.0012 86.0
-41.2537 39.9358 3.0091 87.0
-41.2928 40.1135 3.0171 87.0
-41.1877 40.4327 3.0248 58.0
-41.2423 40.6278 3.034 58.0
-41.1351 40.9631 3.0424 29.0
-41.2076 41.1789 3.0531 29.0
-41.1713 41.5757 3.0665 29.0
-41.2783 41.8295 3.0799 30.0
-3.0172 2.6099 -0.7754 9.0
-3.0126 2.6151 -0.7754 9.0
-2.9969 2.6301 -0.7751 9.0
-2.9968 2.6392 -0.7762 9.0
-2.9844 2.6562 -0.7766 9.0
-2.9797 2.6614 -0.7766 9.0
-2.9619 2.6725 -0.7754 9.0
-2.9586 2.679 -0.7758 8.0
-2.9528 2.7029 -0.7781 9.0
-2.9466 2.7067 -0.7777 9.0
-2.9223 2.7128 -0.7751 9.0
-2.9248 2.7245 -0.777 9.0
-2.9157 2.7457 -0.7785 9.0
-2.9066 2.7468 -0.7774 9.0
-2.8951 2.7646 -0.7781 9.0
-2.8874 2.767 -0.7774 9.0
-2.8677 2.7761 -0.7758 9.0
-2.8657 2.7838 -0.7766 9.0
-2.8539 2.8015 -0.7774 9.0
-2.8546 2.812 -0.7789 9.0
-2.8282 2.8164 -0.7758 9.0
-2.826 2.8241 -0.7766 9.0
-2.8154 2.843 -0.7777 9.0
-2.8145 2.8521 -0.7789 9.0
-3.7395 3.2347 -0.7831 8.0
-3.7383 3.2451 -0.784 8.0
-3.7058 3.2522 -0.7809 8.0
-3.7031 3.2613 -0.7815 8.0
-3.6875 3.282 -0.7819 9.0
-3.6891 3.295 -0.7834 8.0
-3.6753 3.3162 -0.784 8.0
-3.6534 3.3081 -0.7806 8.0
-3.6442 3.3358 -0.7825 8.0
-3.6384 3.3421 -0.7825 8.0
-3.6252 3.3652 -0.7834 8.0
-3.6164 3.3688 -0.7828 8.0
-3.5924 3.3829 -0.7815 8.0
-3.5922 3.3946 -0.7828 8.0
-3.5787 3.4175 -0.7837 8.0
-3.5713 3.4223 -0.7834 8.0
-3.561 3.4472 -0.785 8.0
-3.5436 3.4424 -0.7825 9.0
-3.5242 3.4596 -0.7822 8.0
-3.5266 3.474 -0.784 8.0
-3.5105 3.4958 -0.7847 8.0
-3.4988 3.4964 -0.7834 8.0
-3.4777 3.5118 -0.7828 8.0
-3.4688 3.5151 -0.7822 8.0
-4.8148 4.1648 -0.7817 13.0
-4.821 4.185 -0.7839 13.0
-4.8013 4.2136 -0.7844 13.0
-4.7939 4.222 -0.7844 13.0
-4.7644 4.2404 -0.7831 13.0
-4.7584 4.25 -0.7834 13.0
-4.7383 4.2754 -0.7836 13.0
-4.7353 4.2877 -0.7844 12.0
-4.7208 4.3213 -0.7858 13.0
-4.7001 4.3174 -0.7836 13.0
-4.6891 4.3528 -0.7856 13.0
-4.6785 4.3582 -0.7851 13.0
-4.6621 4.3903 -0.7863 13.0
-4.653 4.3971 -0.7861 13.0
-4.6184 4.4104 -0.7841 13.0
-4.6122 4.4198 -0.7844 13.0
-4.5997 4.4528 -0.7861 13.0
-4.5948 4.4636 -0.7865 13.0
-4.5742 4.4903 -0.787 13.0
-4.5607 4.4927 -0.7861 13.0
-4.5363 4.5174 -0.7861 13.0
-4.5312 4.5281 -0.7865 13.0
-4.513 4.5574 -0.7875 13.0
-4.5037 4.5638 -0.7873 13.0
-6.8216 5.9007 -0.7891 9.0
-6.8083 5.91 -0.7888 9.0
-6.7822 5.952 -0.7895 9.0
-6.7778 5.9691 -0.7902 9.0
-6.7419 6.0005 -0.7896 9.0
-6.7419 6.0216 -0.7909 9.0
-6.6906 6.0369 -0.7884 9.0
-6.6889 6.0566 -0.7895 9.0
-6.6693 6.1048 -0.791 7.0
-6.6571 6.1151 -0.7909 7.0
-6.6236 6.1485 -0.7907 6.0
-6.6172 6.1642 -0.7912 6.0
-6.5808 6.1971 -0.7909 6.0
-6.5802 6.2182 -0.7921 4.0
-6.5562 6.2608 -0.7931 6.0
-6.5423 6.2695 -0.7928 7.0
-6.5091 6.3011 -0.7926 7.0
-6.4981 6.3125 -0.7926 7.0
-6.4692 6.3506 -0.7931 7.0
-6.4695 6.3731 -0.7945 7.0
-6.4321 6.4052 -0.7942 7.0
-6.4138 6.4094 -0.7933 9.0
-6.3774 6.44 -0.7929 9.0
-6.3703 6.4554 -0.7935 7.0
-11.6569 10.0833 -0.8078 9.0
-11.6483 10.1115 -0.8084 9.0
-11.5935 10.1743 -0.8084 9.0
-11.5787 10.1972 -0.8086 9.0
-11.5281 10.2603 -0.8088 11.0
-11.5132 10.2831 -0.809 9.0
-11.4847 10.3627 -0.8107 9.0
-11.4666 10.3827 -0.8107 9.0
-11.4191 10.4527 -0.8113 9.0
-11.4067 10.478 -0.8117 9.0
-11.3751 10.5593 -0.8134 9.0
-11.3713 10.5928 -0.8145 9.0
-11.3167 10.6569 -0.8147 9.0
-11.2923 10.6711 -0.8142 9.0
-11.2493 10.7425 -0.8152 7.0
-11.2247 10.7566 -0.8148 7.0
-11.1558 10.7994 -0.8137 4.0
-11.1111 10.7938 -0.8118 4.0
-11.0431 10.8406 -0.811 7.0
-11.0213 10.8571 -0.8108 7.0
-10.9709 10.925 -0.8114 9.0
-10.956 10.9484 -0.8117 9.0
-10.8831 10.99 -0.8106 9.0
-10.8541 10.999 -0.8098 9.0
-34.6897 30.0068 -0.8006 9.0
-34.154 29.6478 -0.7894 8.0
-33.945 29.79 -0.7883 8.0
-33.917 29.8703 -0.7889 8.0
-33.784 30.0688 -0.7894 8.0
-34.1279 31.2396 -0.8076 9.0
-34.1529 31.3722 -0.8095 9.0
-41.5079 39.2246 -0.9968 48.0
-41.4118 39.5464 -0.9995 16.0
-41.2561 39.5356 -0.9974 16.0
-42.9689 42.1812 -1.051 18.0
-42.8952 42.2562 -1.051 18.0
-42.026 41.9966 -1.0371 17.0
-2.0441 2.0947 -0.7842 8.0
-2.0418 2.0996 -0.7847 8.0
-2.0281 2.1075 -0.7837 8.0
-2.0217 2.1082 -0.7827 8.0
-2.0127 2.1195 -0.7832 8.0
-2.0143 2.1286 -0.7853 8.0
-1.9979 2.1335 -0.7832 9.0
-1.9928 2.1356 -0.7827 8.0
-1.9835 2.1495 -0.7837 9.0
-1.9824 2.1558 -0.7847 8.0
-1.9697 2.1647 -0.7842 8.0
-1.9647 2.1667 -0.7837 9.0
-1.9563 2.1795 -0.7847 9.0
-1.9473 2.1772 -0.7827 8.0
-1.9389 2.1923 -0.7842 8.0
-1.9364 2.1972 -0.7847 9.0
-1.9185 2.2 -0.7822 8.0
-1.9071 2.1946 -0.779 3.0
-1.8814 2.2192 -0.7796 3.0
-1.89 2.2372 -0.7847 6.0
-1.8683 2.2353 -0.7806 9.0
-1.8656 2.24 -0.7811 9.0
-41.5089 42.5357 1.0374 82.0
-41.3147 42.4848 1.0344 81.0
-41.283 42.8994 1.0392 41.0
-41.4351 43.2081 1.0449 20.0
-41.5098 43.7117 1.0522 21.0
-42.019 44.4028 1.0671 44.0
-54.0548 57.7238 1.3804 40.0
-45.1045 49.7434 1.1721 28.0
-45.1193 50.2687 1.179 28.0
-44.9166 50.7868 1.1834 29.0
-44.8834 50.9281 1.1849 29.0
-43.2703 49.6191 1.1492 27.0
-40.3207 47.5613 1.0884 23.0
-39.7312 47.5348 1.0814 23.0
-39.8222 47.813 1.0861 23.0
-2.375 2.4338 -0.7851 6.0
-2.3775 2.4449 -0.7873 7.0
-2.3674 2.4601 -0.7882 8.0
-2.3577 2.4586 -0.7864 7.0
-2.347 2.4715 -0.7869 8.0
-2.34 2.4728 -0.786 7.0
-2.335 2.4935 -0.7887 8.0
-2.3333 2.5004 -0.7896 8.0
-2.3154 2.5091 -0.7882 8.0
-2.307 2.5089 -0.7869 8.0
-2.2912 2.518 -0.786 8.0
-2.2868 2.522 -0.786 6.0
-2.2793 2.5394 -0.7878 6.0
-2.2696 2.5375 -0.786 6.0
-2.1392 2.4188 -0.7455 11.0
-2.0023 2.2719 -0.6991 21.0
-2.1453 2.4601 -0.7536 8.0
-2.2101 2.5433 -0.7779 8.0
-1.9007 2.2105 -0.6731 10.0
-1.8905 2.2064 -0.6708 4.0
-1.8613 2.1955 -0.6645 8.0
-1.8776 2.2226 -0.6717 36.0
-1.8434 2.2055 -0.6636 30.0
-1.837 2.2057 -0.6627 39.0
-41.2114 42.2309 3.0924 30.0
-41.3437 42.5147 3.1079 30.0
-41.3587 42.9781 3.1259 30.0
-41.574 43.3529 3.1479 31.0
-40.765 47.4104 3.2769 35.0
-40.3865 47.639 3.2731 35.0
-39.5867 47.3619 3.235 33.0
-2.7958 2.865 -0.7781 9.0
-2.7853 2.8642 -0.7766 9.0
-2.7717 2.8802 -0.777 9.0
-2.7707 2.8893 -0.7781 9.0
-2.762 2.9085 -0.7796 9.0
-2.7582 2.9147 -0.78 9.0
-2.7402 2.9262 -0.7793 9.0
-2.7284 2.9238 -0.7774 9.0
-2.7214 2.9491 -0.78 9.0
-2.7122 2.9495 -0.7789 9.0
-2.6994 2.9666 -0.7796 9.0
-2.6876 2.964 -0.7777 9.0
-2.6752 2.9805 -0.7785 9.0
-2.6752 2.991 -0.78 9.0
-2.6637 3.0118 -0.7816 9.0
-2.6545 3.0121 -0.7804 9.0
-2.6271 3.0126 -0.777 9.0
-1.8956 2.1814 -0.5617 1.0
-1.8752 2.1808 -0.5591 15.0
-1.8854 2.2005 -0.5633 24.0
-1.8586 2.1924 -0.5587 20.0
-1.8409 2.1791 -0.5545 19.0
-1.8168 2.1814 -0.5518 5.0
-41.215 47.9338 5.5307 28.0
-40.2192 47.6098 5.4526 27.0
-39.8042 47.7914 5.4415 27.0
-3.4574 3.5429 -0.784 8.0
-3.4553 3.5532 -0.785 8.0
-3.4325 3.5669 -0.784 8.0
-3.4236 3.5701 -0.7834 8.0
-3.4047 3.5853 -0.7831 8.0
-3.3985 3.5913 -0.7831 8.0
-3.3877 3.6177 -0.785 12.0
-3.3814 3.6236 -0.785 8.0
-3.3517 3.6322 -0.7828 8.0
-3.3494 3.6424 -0.7837 8.0
-3.3316 3.6614 -0.784 8.0
-3.3332 3.676 -0.7859 9.0
-3.3172 3.6957 -0.7866 11.0
-3.3002 3.6897 -0.784 9.0
-3.2782 3.7066 -0.7837 9.0
-3.2743 3.7153 -0.7844 9.0
-3.2626 3.7413 -0.7862 8.0
-3.2561 3.747 -0.7862 9.0
-3.2339 3.761 -0.7856 10.0
-3.2273 3.7667 -0.7856 9.0
-3.2101 3.7865 -0.7862 9.0
-3.2047 3.7936 -0.7866 9.0
-3.1861 3.8119 -0.7869 8.0
-3.1744 3.8114 -0.7856 8.0
-4.4754 4.5861 -0.7868 13.0
-4.4632 4.5896 -0.7861 13.0
-4.4501 4.6244 -0.788 13.0
-4.4462 4.6364 -0.7887 13.0
-4.4193 4.6538 -0.788 13.0
-4.4071 4.6571 -0.7873 13.0
-4.384 4.6816 -0.7875 13.0
-4.3772 4.6907 -0.7878 13.0
-4.3617 4.7267 -0.7897 13.0
-4.3548 4.7358 -0.79 13.0
-4.3259 4.7541 -0.7892 13.0
-4.315 4.7587 -0.7887 13.0
-4.2988 4.7894 -0.7902 13.0
-4.2825 4.788 -0.7887 13.0
-4.2557 4.8119 -0.7887 12.0
-4.2473 4.8193 -0.7887 12.0
-4.2207 4.84 -0.7885 13.0
-4.2187 4.8548 -0.7897 13.0
-4.1971 4.8813 -0.7904 13.0
-4.1899 4.8902 -0.7907 13.0
-4.1501 4.8954 -0.788 13.0
-4.1531 4.9163 -0.7902 13.0
-4.1286 4.9395 -0.7904 13.0
-4.1187 4.9451 -0.7902 12.0
-6.3411 6.498 -0.7943 9.0
-6.3326 6.5119 -0.7947 9.0
-6.2956 6.5421 -0.7943 9.0
-6.2828 6.5517 -0.7942 7.0
-6.2548 6.5866 -0.7947 9.0
-6.2461 6.6004 -0.795 9.0
-6.2101 6.6316 -0.7949 7.0
-6.1958 6.6395 -0.7945 9.0
-6.1572 6.6725 -0.7943 7.0
-6.1469 6.6847 -0.7945 9.0
-6.1212 6.7271 -0.7957 9.0
-6.1068 6.7349 -0.7954 9.0
-6.0673 6.7597 -0.7947 9.0
-6.0502 6.7644 -0.794 9.0
-6.0176 6.804 -0.7947 7.0
-6.0097 6.819 -0.7952 9.0
-5.9726 6.8489 -0.795 9.0
-5.9567 6.8548 -0.7945 9.0
-5.9259 6.8919 -0.7952 9.0
-5.9165 6.9053 -0.7956 9.0
-5.8828 6.9392 -0.7959 9.0
-5.8681 6.9464 -0.7956 9.0
-5.8265 6.9709 -0.7949 9.0
-5.8144 6.9811 -0.7949 9.0
-10.7785 11.0452 -0.8088 9.0
-10.7704 11.0754 -0.8096 9.0
-10.7025 11.1216 -0.8089 9.0
-10.6817 11.1388 -0.8088 9.0
-10.6134 11.1764 -0.8078 9.0
-10.5802 11.1804 -0.8067 9.0
-10.5297 11.2444 -0.8073 9.0
-10.5127 11.2657 -0.8075 9.0
-10.447 11.3213 -0.8073 9.0
-10.4083 11.3189 -0.8059 9.0
-10.3569 11.3821 -0.8065 9.0
-10.3209 11.3824 -0.8052 9.0
-10.2578 11.4285 -0.8048 11.0
-10.2232 11.4301 -0.8037 14.0
-10.1566 11.484 -0.8035 26.0
-10.1484 11.5152 -0.8044 49.0
-10.1208 11.6058 -0.807 71.0
-10.1294 11.6566 -0.8093 95.0
-10.0916 11.7367 -0.8112 87.0
-10.088 11.7741 -0.8126 57.0
-10.043 11.8465 -0.8139 28.0
-10.0314 11.8747 -0.8147 21.0
-9.9742 11.9332 -0.8151 11.0
-9.9278 11.9199 -0.813 11.0
-1.8572 2.2545 -0.7827 9.0
-1.8422 2.2443 -0.778 10.0
-1.7963 2.212 -0.7635 20.0
-1.7597 2.1745 -0.7495 31.0
-1.7132 2.14 -0.7345 42.0
-1.7264 2.1641 -0.7418 35.0
-1.7326 2.1962 -0.7495 31.0
-1.7275 2.1977 -0.749 27.0
-1.7053 2.193 -0.7444 14.0
-1.6743 2.1608 -0.7325 4.0
-1.7617 2.2984 -0.7759 7.0
-1.7858 2.3383 -0.7884 10.0
-1.7631 2.3337 -0.7837 9.0
-1.7601 2.3383 -0.7842 8.0
-1.744 2.3432 -0.7827 8.0
-1.7468 2.3555 -0.7858 8.0
