# .PCD v0.7 - Point Cloud Data file format
VERSION 0.7
FIELDS x y z intensity
SIZE 4 4 4 4
TYPE F F F F
COUNT 1 1 1 1
WIDTH 1854
HEIGHT 1
VIEWPOINT 0 0 0 1 0 0 0
POINTS 1854
DATA ascii
3.2115 1.7451 -0.1915 7.0
3.2075 1.7357 -0.1911 7.0
3.2035 1.7263 -0.1907 7.0
3.1836 1.7085 -0.1894 6.0
3.2165 1.7189 -0.1911 7.0
3.1983 1.702 -0.1899 6.0
3.2175 1.7043 -0.1908 7.0
3.1922 1.6838 -0.1891 5.0
3.2004 1.681 -0.1895 1.0
2.8777 1.5051 -0.1702 1.0
2.6873 1.3995 -0.1588 1.0
2.6702 1.3847 -0.1576 1.0
2.6777 1.3832 -0.1579 1.0
2.705 1.3914 -0.1594 1.0
2.7003 1.383 -0.159 1.0
2.7454 1.4001 -0.1615 1.0
2.7229 1.3826 -0.16 1.0
2.7503 1.3905 -0.1615 1.0
2.7134 1.3659 -0.1592 1.0
2.7301 1.3683 -0.16 1.0
6.044 3.3378 1.594 11.0
6.06 3.3329 1.5967 11.0
6.0556 3.3167 1.594 11.0
6.0802 3.3164 1.599 11.0
6.082 3.305 1.5981 11.0
6.0963 3.299 1.6003 11.0
6.1106 3.293 1.6026 12.0
6.1078 3.2777 1.6003 12.0
6.1221 3.2716 1.6026 11.0
6.1243 3.2591 1.6017 12.0
6.1375 3.251 1.6035 11.0
6.1535 3.2457 1.6062 11.0
6.1505 3.2305 1.6039 11.0
6.1682 3.226 1.6071 11.0
6.1842 3.2207 1.6097 11.0
6.1794 3.2045 1.6071 11.0
6.1983 3.2019 1.6106 11.0
6.2056 3.192 1.6111 11.0
6.206 3.1785 1.6097 11.0
6.2133 3.1685 1.6102 11.0
6.2309 3.1639 1.6133 11.0
6.2365 3.153 1.6133 11.0
6.2489 3.1456 1.6151 12.0
6.2648 3.1399 1.6178 11.0
3.1929 1.7633 -0.0637 8.0
3.1977 1.7587 -0.0637 8.0
3.1955 1.7502 -0.0636 8.0
3.1863 1.7379 -0.0634 8.0
3.1837 1.7301 -0.0632 8.0
3.185 1.7236 -0.0632 7.0
3.188 1.718 -0.0632 7.0
3.191 1.7124 -0.0632 7.0
3.1763 1.6974 -0.0629 7.0
3.1758 1.69 -0.0628 7.0
3.1949 1.6923 -0.0631 6.0
3.1837 1.6793 -0.0628 1.0
2.6785 1.4069 -0.0528 1.0
2.6562 1.3892 -0.0523 2.0
2.6622 1.3864 -0.0524 1.0
2.6752 1.3873 -0.0526 1.0
2.7525 1.3856 -0.0538 1.0
2.644 1.3252 -0.0516 1.0
5.0209 2.7728 1.5369 23.0
5.0359 2.7696 1.54 22.0
5.0576 2.7701 1.5451 20.0
5.0727 2.7668 1.5483 17.0
5.0821 2.7616 1.5498 15.0
5.0886 2.7537 1.5503 13.0
5.0951 2.7457 1.5508 13.0
5.0982 2.7359 1.5503 11.0
5.1115 2.7316 1.5529 12.0
5.106 2.7172 1.5498 11.0
5.1334 2.7191 1.5565 12.0
5.1296 2.7057 1.5539 10.0
5.1514 2.7057 1.5591 12.0
5.163 2.7003 1.5612 12.0
5.1591 2.6868 1.5586 12.0
5.1689 2.6805 1.5602 12.0
5.1783 2.675 1.5617 12.0
5.1829 2.666 1.5617 10.0
5.1927 2.6595 1.5633 10.0
5.1939 2.6487 1.5622 10.0
5.2037 2.6423 1.5638 10.0
5.2049 2.6315 1.5627 10.0
5.2267 2.6311 1.5679 10.0
5.233 2.6228 1.5684 10.0
2.4788 1.237 -0.7423 13.0
2.493 1.2386 -0.7459 30.0
2.4883 1.2309 -0.7438 22.0
2.4835 1.2231 -0.7418 29.0
2.4943 1.223 -0.7444 30.0
2.4843 1.2127 -0.7407 29.0
2.4933 1.2118 -0.7428 34.0
2.5041 1.2116 -0.7454 37.0
2.5219 1.2148 -0.7501 34.0
2.524 1.2104 -0.7501 29.0
2.5349 1.2102 -0.7526 26.0
2.5544 1.214 -0.7578 26.0
2.5775 1.2195 -0.764 26.0
2.5953 1.2224 -0.7687 27.0
2.6167 1.2269 -0.7744 30.0
2.6153 1.2207 -0.7734 37.0
2.6402 1.2267 -0.7801 58.0
2.6371 1.2196 -0.7785 53.0
2.641 1.2158 -0.779 55.0
2.6379 1.2088 -0.7775 53.0
2.6362 1.2031 -0.7765 56.0
2.6348 1.1969 -0.7754 53.0
2.6369 1.1923 -0.7754 52.0
2.639 1.1877 -0.7754 53.0
3.176 1.5849 0.062 3.0
3.1734 1.5767 0.0619 3.0
3.1707 1.5685 0.0617 4.0
3.1645 1.5585 0.0616 4.0
3.1636 1.5512 0.0615 4.0
3.1645 1.5448 0.0615 4.0
3.1636 1.5375 0.0614 6.0
3.1591 1.5285 0.0613 6.0
3.169 1.5265 0.0614 7.0
3.1554 1.5132 0.0611 8.0
3.1526 1.5051 0.061 7.0
3.1444 1.4944 0.0608 8.0
3.1434 1.4872 0.0607 8.0
3.1532 1.4851 0.0608 9.0
3.1522 1.4779 0.0608 10.0
3.1548 1.4724 0.0608 10.0
3.1428 1.4602 0.0605 11.0
3.1454 1.4547 0.0605 11.0
3.1406 1.4459 0.0604 14.0
3.1468 1.442 0.0604 13.0
3.1527 1.4388 0.0605 13.0
3.1352 1.4242 0.0601 13.0
3.1285 1.4146 0.0599 15.0
3.1438 1.4148 0.0602 16.0
2.6068 1.3008 -0.6726 2.0
2.6614 1.3223 -0.6861 11.0
2.6678 1.3139 -0.6866 55.0
2.6701 1.3092 -0.6866 60.0
2.6636 1.3003 -0.6843 64.0
2.6554 1.2905 -0.6816 50.0
2.6453 1.2799 -0.6785 48.0
2.6423 1.2728 -0.6771 50.0
2.6515 1.2715 -0.6789 50.0
2.6432 1.2619 -0.6762 49.0
2.656 1.2623 -0.6789 49.0
2.6441 1.251 -0.6753 49.0
2.6339 1.2405 -0.6722 48.0
2.6431 1.2393 -0.674 48.0
2.6417 1.233 -0.6731 48.0
2.6439 1.2284 -0.6731 48.0
2.6354 1.2189 -0.6704 48.0
2.6305 1.211 -0.6686 48.0
2.6361 1.208 -0.6695 48.0
2.638 1.2039 -0.6695 48.0
2.6401 1.1993 -0.6695 48.0
2.6315 1.1898 -0.6668 48.0
2.6265 1.1821 -0.665 49.0
5.574 2.7815 0.3265 27.0
5.5681 2.7664 0.3258 31.0
5.5675 2.7541 0.3255 31.0
5.5598 2.7382 0.3248 36.0
5.561 2.7267 0.3246 38.0
5.5819 2.7249 0.3255 31.0
5.5669 2.7055 0.3244 6.0
8.8827 4.1647 0.5141 4.0
8.8429 4.1273 0.5114 4.0
8.7885 4.0832 0.5079 4.0
8.7775 4.0595 0.5068 8.0
8.7718 4.0383 0.5061 8.0
8.7571 4.013 0.5048 8.0
8.7579 3.9968 0.5045 8.0
8.7631 3.9806 0.5044 8.0
8.7773 3.9686 0.5048 13.0
8.7915 3.9566 0.5053 13.0
2.635 1.3149 -0.5724 3.0
2.6197 1.3016 -0.5686 1.0
2.5798 1.2761 -0.5595 1.0
2.5961 1.2786 -0.5625 1.0
2.5454 1.2481 -0.5511 1.0
2.5335 1.2368 -0.548 1.0
2.5356 1.2323 -0.548 1.0
2.5519 1.2347 -0.5511 1.0
2.5399 1.2235 -0.548 1.0
2.535 1.2156 -0.5465 1.0
2.5725 1.2281 -0.5541 1.0
2.5924 1.2321 -0.5579 1.0
2.6016 1.2309 -0.5595 1.0
2.6038 1.2264 -0.5595 1.0
2.6095 1.2235 -0.5602 2.0
2.633 1.2289 -0.5648 11.0
2.6226 1.2185 -0.5621 20.0
2.6426 1.2222 -0.5659 40.0
2.6251 1.2085 -0.5617 30.0
2.6272 1.2039 -0.5617 38.0
2.6255 1.1982 -0.561 41.0
2.6347 1.1968 -0.5625 39.0
2.6368 1.1922 -0.5625 39.0
2.63 1.1836 -0.5606 38.0
10.3613 5.1705 1.0131 3.0
10.3596 5.1471 1.0121 3.0
10.3597 5.1246 1.0112 3.0
10.3543 5.0994 1.0098 3.0
10.3668 5.0831 1.0101 3.0
10.3488 5.0519 1.0075 3.0
10.3414 5.026 1.006 3.0
10.3376 5.0019 1.0047 3.0
10.3446 4.9829 1.0046 3.0
10.346 4.9614 1.0039 3.0
10.3295 4.9314 1.0014 3.0
10.3255 4.9073 1.0002 3.0
10.3251 4.885 0.9993 2.0
10.3282 4.8645 0.9988 2.0
10.3258 4.8414 0.9978 2.0
10.3126 4.8132 0.9957 2.0
10.3083 4.7893 0.9944 2.0
10.313 4.7697 0.9941 2.0
10.3141 4.7483 0.9934 2.0
10.317 4.7278 0.9929 2.0
10.299 4.7 0.9904 2.0
10.2763 4.668 0.9875 2.0
10.2917 4.6534 0.9882 2.0
8.8027 3.9616 0.8445 2.0
2.6866 1.3407 -0.4756 1.0
2.6748 1.329 -0.4731 1.0
2.6771 1.3243 -0.4731 1.0
2.6759 1.3179 -0.4724 1.0
2.6853 1.3167 -0.4737 1.0
2.684 1.3103 -0.4731 1.0
2.6721 1.2987 -0.4706 1.0
2.6744 1.294 -0.4706 1.0
2.6731 1.2876 -0.4699 1.0
2.6753 1.2829 -0.4699 1.0
2.6847 1.2817 -0.4712 1.0
2.6726 1.2702 -0.4687 1.0
2.6588 1.2579 -0.4659 1.0
2.6645 1.255 -0.4665 1.0
2.681 1.257 -0.469 1.0
2.6904 1.2557 -0.4702 1.0
2.6782 1.2443 -0.4677 1.0
2.6732 1.2363 -0.4665 1.0
2.6718 1.23 -0.4659 1.0
2.6668 1.2221 -0.4646 1.0
2.6866 1.2261 -0.4677 1.0
2.6672 1.2116 -0.464 6.0
2.6567 1.2012 -0.4618 6.0
2.6858 1.2087 -0.4665 1.0
10.3252 5.1524 1.4169 5.0
10.3146 5.1247 1.4142 5.0
10.3146 5.1023 1.413 8.0
10.3057 5.0755 1.4105 8.0
10.3128 5.0566 1.4103 8.0
10.3073 5.0317 1.4083 8.0
10.3018 5.0067 1.4064 8.0
10.3069 4.987 1.4059 8.0
10.2959 4.9595 1.4032 8.0
10.2956 4.9373 1.402 8.0
10.3024 4.9184 1.4017 8.0
10.2949 4.8928 1.3995 8.0
10.2711 4.8595 1.3952 8.0
10.2706 4.8373 1.3939 8.0
10.2772 4.8186 1.3937 8.0
10.2784 4.7973 1.3927 8.0
10.2688 4.771 1.3903 8.0
10.2753 4.7522 1.39 8.0
10.2637 4.7251 1.3874 7.0
10.2593 4.7014 1.3857 7.0
10.2631 4.6836 1.3852 7.0
10.2459 4.6542 1.3818 5.0
8.7672 3.9641 1.1814 13.0
8.7596 3.9423 1.1795 20.0
2.7105 1.3526 -0.3719 1.0
2.7058 1.3443 -0.371 1.0
2.7223 1.3466 -0.3729 1.0
2.6926 1.3261 -0.3685 1.0
2.6842 1.3162 -0.3671 1.0
2.6687 1.3028 -0.3646 1.0
2.6924 1.3085 -0.3676 1.0
2.7018 1.3073 -0.3685 1.0
2.6755 1.2888 -0.3646 1.0
2.6777 1.2841 -0.3646 1.0
2.6907 1.2846 -0.3661 1.0
2.7109 1.2884 -0.3685 1.0
2.7059 1.2802 -0.3676 1.0
2.6471 1.2468 -0.3593 1.0
2.7032 1.2674 -0.3666 1.0
2.6658 1.2442 -0.3612 1.0
2.6752 1.2429 -0.3622 1.0
2.6774 1.2383 -0.3622 1.0
2.6543 1.222 -0.3588 1.0
2.651 1.2148 -0.3581 3.0
2.6511 1.2099 -0.3578 6.0
2.655 1.206 -0.3581 3.0
2.7443 1.2351 -0.3695 1.0
10.2799 5.1299 1.8196 5.0
10.2942 5.1145 1.8206 5.0
10.2925 5.0913 1.8187 7.0
10.2942 5.0699 1.8175 7.0
10.2818 5.0414 1.8137 7.0
10.2799 5.0183 1.8118 7.0
10.2816 4.9969 1.8106 5.0
10.2814 4.9746 1.809 7.0
10.2811 4.9524 1.8074 7.0
10.2684 4.9242 1.8037 7.0
10.2698 4.9029 1.8024 5.0
10.257 4.8748 1.7987 5.0
10.2637 4.856 1.7984 5.0
10.2614 4.833 1.7965 5.0
10.2484 4.8051 1.7927 5.0
10.2442 4.7813 1.7905 7.0
10.2454 4.7601 1.7893 7.0
10.2501 4.7405 1.7887 7.0
10.253 4.7202 1.7877 7.0
10.236 4.6907 1.7834 5.0
8.7356 3.9866 1.5209 1.0
8.7498 3.9746 1.5221 16.0
8.7765 3.9683 1.5255 26.0
8.7672 3.9457 1.5227 13.0
2.6759 1.3353 -0.2616 1.0
2.6996 1.3413 -0.2637 1.0
2.6734 1.3224 -0.2609 1.0
2.6829 1.3213 -0.2616 1.0
2.6565 1.3026 -0.2589 1.0
2.6731 1.3049 -0.2602 1.0
2.6575 1.2916 -0.2585 1.0
2.6669 1.2904 -0.2592 1.0
2.6871 1.2944 -0.2609 1.0
2.6894 1.2897 -0.2609 1.0
2.6592 1.2695 -0.2578 1.0
2.6327 1.2512 -0.255 1.0
2.6529 1.2551 -0.2568 1.0
2.6514 1.2488 -0.2564 1.0
2.65 1.2425 -0.2561 1.0
2.6558 1.2395 -0.2564 1.0
2.6399 1.2265 -0.2547 1.0
2.6384 1.2202 -0.2543 4.0
2.6441 1.2173 -0.2547 11.0
2.6499 1.2143 -0.255 13.0
2.6684 1.2121 -0.2564 1.0
2.7177 1.2288 -0.2609 1.0
2.7199 1.2241 -0.2609 1.0
7.8225 3.9036 1.6993 9.0
7.8223 3.8864 1.6978 7.0
7.8273 3.8719 1.6974 7.0
7.8499 3.866 1.7009 7.0
7.8619 3.8549 1.702 7.0
7.8721 3.8429 1.7028 7.0
7.8824 3.8309 1.7035 7.0
7.8926 3.8188 1.7043 7.0
7.9151 3.8127 1.7077 7.0
7.9413 3.8082 1.7119 9.0
7.9443 3.7927 1.7112 7.0
7.9474 3.7771 1.7104 9.0
7.9629 3.7674 1.7123 7.0
7.9783 3.7577 1.7142 7.0
7.9902 3.7463 1.7154 7.0
8.0198 3.7431 1.7203 7.0
8.0246 3.7283 1.72 7.0
8.04 3.7184 1.7219 7.0
8.0518 3.7068 1.723 7.0
8.0672 3.6969 1.7249 7.0
8.0855 3.6899 1.7276 7.0
8.0901 3.675 1.7272 7.0
8.1108 3.6673 1.7303 7.0
8.1244 3.6564 1.7318 7.0
2.6646 1.3297 -0.1561 1.0
2.7349 1.3588 -0.16 1.0
2.6835 1.3274 -0.1569 1.0
2.7073 1.3333 -0.1582 1.0
2.7168 1.3321 -0.1586 1.0
2.7658 1.3502 -0.1613 1.0
2.7466 1.3349 -0.16 1.0
2.659 1.2866 -0.1548 1.0
2.6613 1.2819 -0.1548 1.0
2.6635 1.2773 -0.1548 1.0
2.6657 1.2726 -0.1548 1.0
2.6824 1.2748 -0.1556 1.0
2.6882 1.2719 -0.1559 1.0
2.7013 1.2723 -0.1565 1.0
2.6637 1.2489 -0.1542 1.0
2.6514 1.2375 -0.1533 1.0
2.6518 1.232 -0.1532 1.0
2.6557 1.2282 -0.1533 7.0
2.6506 1.2203 -0.1529 5.0
2.7164 1.2397 -0.1565 1.0
2.7113 1.2316 -0.1561 1.0
2.7571 1.2466 -0.1586 1.0
6.2755 3.1316 1.6192 11.0
6.2932 3.1267 1.6223 11.0
6.2969 3.1149 1.6219 11.0
6.2954 3.1004 1.6201 11.0
6.292 3.0851 1.6178 11.0
6.3201 3.0853 1.6237 11.0
6.315 3.0691 1.621 9.0
6.3432 3.0691 1.6268 11.0
6.3345 3.0513 1.6232 9.0
6.3538 3.047 1.6268 9.0
6.3574 3.035 1.6264 11.0
6.3732 3.029 1.6291 9.0
6.3891 3.0228 1.6318 9.0
6.3855 3.0075 1.6295 9.0
6.3961 2.9989 1.6309 9.0
6.4083 2.991 1.6327 9.0
6.4171 2.9814 1.6336 9.0
6.4223 2.9702 1.6336 9.0
6.4257 2.9582 1.6331 11.0
6.4291 2.9462 1.6327 9.0
6.4496 2.9434 1.6367 11.0
6.4636 2.9361 1.639 9.0
6.4723 2.9264 1.6399 11.0
6.4721 2.9127 1.6385 11.0
2.6555 1.3021 -0.0516 1.0
2.6578 1.2974 -0.0516 1.0
2.66 1.2928 -0.0516 1.0
2.6623 1.2881 -0.0516 1.0
2.6645 1.2835 -0.0516 1.0
2.6451 1.2685 -0.0512 1.0
2.669 1.2742 -0.0516 1.0
2.6532 1.2609 -0.0513 1.0
2.6481 1.2529 -0.0511 1.0
2.6575 1.2517 -0.0513 1.0
2.6489 1.2419 -0.0511 1.0
2.6293 1.2272 -0.0506 5.0
2.6387 1.2259 -0.0508 10.0
2.6499 1.2255 -0.051 3.0
2.6665 1.2276 -0.0512 1.0
2.7069 1.2404 -0.052 1.0
2.6949 1.2185 -0.0516 1.0
5.2272 2.6085 1.5653 12.0
5.2421 2.6045 1.5684 10.0
5.2398 2.5919 1.5664 10.0
5.2633 2.5922 1.5721 12.0
5.2627 2.5804 1.5705 10.0
5.2654 2.5704 1.57 9.0
5.2751 2.5637 1.5715 12.0
5.2778 2.5537 1.571 9.0
5.2858 2.5461 1.5721 10.0
5.3006 2.5419 1.5752 9.0
5.3068 2.5335 1.5757 10.0
5.3077 2.5226 1.5747 9.0
5.3209 2.5174 1.5772 9.0
5.3357 2.5131 1.5803 10.0
5.3436 2.5054 1.5814 9.0
5.3322 2.4887 1.5767 9.0
5.3436 2.4827 1.5788 9.0
5.3567 2.4774 1.5814 9.0
5.368 2.4713 1.5835 10.0
5.367 2.4595 1.5819 10.0
5.3797 2.4551 1.5845 7.0
5.3787 2.4433 1.5829 9.0
5.3882 2.4363 1.5845 10.0
5.4013 2.4308 1.5871 9.0
2.641 1.1831 -0.7754 52.0
2.6325 1.1737 -0.7723 53.0
2.6348 1.1687 -0.7723 53.0
2.6315 1.1617 -0.7708 55.0
2.6388 1.1595 -0.7723 53.0
2.6391 1.1541 -0.7718 55.0
2.6303 1.1453 -0.7687 55.0
2.6269 1.1384 -0.7671 56.0
2.6342 1.1361 -0.7687 55.0
2.6362 1.1315 -0.7687 55.0
2.6329 1.1246 -0.7671 56.0
2.6259 1.1163 -0.7646 55.0
2.6261 1.1109 -0.764 56.0
2.6245 1.1048 -0.763 58.0
2.6353 1.104 -0.7656 56.0
2.6301 1.0964 -0.7635 58.0
2.6213 1.0874 -0.7604 58.0
2.6232 1.0828 -0.7604 56.0
2.6215 1.0768 -0.7594 58.0
2.6305 1.0751 -0.7614 58.0
2.6288 1.0691 -0.7604 56.0
2.6164 1.0587 -0.7563 58.0
2.6146 1.0527 -0.7552 58.0
2.6129 1.0467 -0.7542 58.0
3.1389 1.4061 0.06 16.0
3.1359 1.3982 0.0599 18.0
3.1368 1.3913 0.0599 19.0
3.1319 1.3826 0.0598 19.0
3.1306 1.3755 0.0597 21.0
3.1403 1.3733 0.0598 22.0
3.1315 1.3636 0.0596 21.0
3.1302 1.3565 0.0595 22.0
3.1179 1.3447 0.0593 22.0
3.1239 1.3408 0.0593 24.0
3.1336 1.3385 0.0595 25.0
3.1322 1.3315 0.0594 26.0
3.1069 1.3143 0.0589 23.0
3.1111 1.3097 0.0589 25.0
3.1189 1.3066 0.059 28.0
3.1174 1.2996 0.059 27.0
3.1234 1.2957 0.059 28.0
3.109 1.2834 0.0587 29.0
3.1002 1.2734 0.0585 29.0
3.1116 1.2717 0.0587 27.0
3.112 1.2656 0.0586 29.0
3.1105 1.2586 0.0586 30.0
3.0997 1.248 0.0583 27.0
3.0963 1.2403 0.0582 30.0
2.6357 1.1807 -0.6668 48.0
2.6324 1.1737 -0.6654 49.0
2.6329 1.1678 -0.665 49.0
2.6278 1.1601 -0.6632 46.0
2.6262 1.1539 -0.6623 37.0
2.6372 1.1532 -0.6645 11.0
2.6336 1.1468 -0.6632 12.0
2.6428 1.1453 -0.665 9.0
2.6215 1.1306 -0.6591 6.0
2.6181 1.1237 -0.6578 6.0
2.6147 1.1169 -0.6564 8.0
2.6166 1.1123 -0.6564 16.0
2.6257 1.1108 -0.6582 50.0
2.6097 1.0986 -0.6537 45.0
2.6098 1.0933 -0.6533 49.0
2.6171 1.091 -0.6546 50.0
2.619 1.0864 -0.6546 50.0
2.6137 1.0789 -0.6528 50.0
2.6048 1.0699 -0.6501 28.0
2.603 1.0639 -0.6492 5.0
2.5977 1.0564 -0.6474 5.0
2.6049 1.054 -0.6488 9.0
2.6194 1.0546 -0.6519 8.0
2.6104 1.0457 -0.6492 8.0
8.8075 3.9453 0.5058 8.0
8.8271 3.9356 0.5065 8.0
8.8018 3.9041 0.5046 8.0
8.8031 3.8863 0.5043 4.0
8.766 3.8517 0.5018 4.0
8.7727 3.8363 0.5018 8.0
8.7842 3.825 0.5021 8.0
8.7927 3.8104 0.5022 8.0
8.7718 3.7832 0.5006 8.0
8.7656 3.7624 0.4999 8.0
8.7611 3.7424 0.4993 8.0
8.7621 3.7247 0.499 8.0
8.7631 3.7071 0.4987 8.0
8.764 3.6895 0.4983 8.0
8.7594 3.6695 0.4977 8.0
8.7566 3.6504 0.4972 4.0
8.809 3.6542 0.4998 8.0
8.8439 3.6326 0.5011 8.0
8.8658 3.6054 0.5016 4.0
8.8869 3.5959 0.5024 4.0
2.6213 1.1742 -0.5583 38.0
2.6251 1.1704 -0.5587 41.0
2.6327 1.1678 -0.5598 37.0
2.6312 1.1616 -0.5591 34.0
2.626 1.1538 -0.5575 20.0
2.619 1.1453 -0.5556 19.0
2.6154 1.1388 -0.5545 20.0
2.6192 1.1351 -0.5549 24.0
2.6176 1.1289 -0.5541 26.0
2.6213 1.1251 -0.5545 28.0
2.6161 1.1175 -0.553 33.0
2.6126 1.1106 -0.5518 39.0
2.6145 1.106 -0.5518 43.0
2.6237 1.1045 -0.5533 45.0
2.613 1.0946 -0.5507 38.0
2.6094 1.0878 -0.5495 45.0
2.5986 1.078 -0.5469 38.0
2.6041 1.0749 -0.5476 38.0
2.606 1.0704 -0.5476 38.0
2.6079 1.0658 -0.5476 38.0
2.5988 1.0569 -0.5453 38.0
2.597 1.0508 -0.5446 38.0
2.6025 1.0478 -0.5453 37.0
2.6025 1.0425 -0.545 41.0
8.8369 3.9585 0.8472 17.0
8.7965 3.922 0.8426 12.0
8.8095 3.9075 0.8431 10.0
8.9038 3.9307 0.8515 52.0
8.8814 3.9024 0.8487 12.0
8.8773 3.8821 0.8477 2.0
8.9144 3.8816 0.8506 2.0
8.9431 3.8756 0.8527 2.0
10.2744 4.4312 0.9789 2.0
10.2748 4.4102 0.9782 2.0
10.2971 4.3985 0.9796 2.0
10.2461 4.3556 0.9741 2.0
10.2978 4.3563 0.9782 2.0
10.3347 4.3507 0.981 2.0
9.0596 3.7953 0.8594 2.0
8.8888 3.6873 0.8419 2.0
5.5802 2.3034 0.5282 2.0
5.5882 2.2839 0.5282 2.0
5.5922 2.2742 0.5282 2.0
5.5962 2.2644 0.5282 2.0
5.5225 2.2234 0.5208 2.0
5.5264 2.2137 0.5208 2.0
2.6915 1.2057 -0.4671 1.0
2.7117 1.209 -0.4702 1.0
2.6959 1.1958 -0.4671 1.0
2.7034 1.1935 -0.4681 1.0
2.7055 1.1888 -0.4681 3.0
2.7112 1.1856 -0.4687 4.0
2.7076 1.179 -0.4677 4.0
2.6952 1.168 -0.4652 4.0
2.69 1.1602 -0.464 4.0
2.7101 1.1632 -0.4671 5.0
2.6849 1.1469 -0.4624 7.0
2.6851 1.1414 -0.4621 22.0
2.6616 1.126 -0.4577 24.0
2.669 1.1236 -0.4587 32.0
2.671 1.1189 -0.4587 37.0
2.6693 1.1128 -0.458 38.0
2.6694 1.1073 -0.4577 37.0
2.6659 1.1004 -0.4568 38.0
2.6605 1.0928 -0.4555 38.0
2.666 1.0896 -0.4562 39.0
2.6679 1.085 -0.4562 40.0
2.6753 1.0825 -0.4571 45.0
2.6717 1.0756 -0.4562 49.0
2.6699 1.0695 -0.4555 49.0
8.7665 3.927 1.1795 18.0
8.7842 3.9165 1.1809 13.0
8.828 3.9157 1.1858 16.0
8.8167 3.8923 1.1834 4.0
10.2089 4.4644 1.3681 7.0
10.2213 4.4507 1.3688 7.0
10.2145 4.4266 1.3669 7.0
10.2094 4.4032 1.3652 7.0
10.2098 4.3823 1.3642 7.0
10.2156 4.3637 1.364 7.0
10.2251 4.3466 1.3642 7.0
10.2034 4.3164 1.3603 7.0
10.2036 4.2955 1.3593 7.0
10.2001 4.2731 1.3579 7.0
10.1947 4.2499 1.3562 7.0
10.1966 4.2298 1.3554 7.0
10.1966 4.209 1.3545 7.0
10.1801 4.1814 1.3513 7.0
10.1671 4.1553 1.3486 7.0
10.1762 4.1383 1.3488 7.0
10.1632 4.1124 1.3462 7.0
10.1759 4.0969 1.3469 7.0
10.1627 4.071 1.3442 7.0
2.7102 1.214 -0.3646 1.0
2.7167 1.1994 -0.3646 1.0
2.7007 1.1866 -0.3622 1.0
2.6663 1.166 -0.3573 1.0
2.6755 1.165 -0.3583 1.0
2.6738 1.1587 -0.3578 1.0
2.6667 1.1501 -0.3566 1.0
2.676 1.1486 -0.3576 11.0
2.6654 1.1331 -0.3556 24.0
2.6692 1.1292 -0.3559 30.0
2.6694 1.1237 -0.3556 33.0
2.6567 1.1129 -0.3537 33.0
2.6549 1.1068 -0.3532 31.0
2.6642 1.1052 -0.3542 33.0
2.6588 1.0975 -0.3532 31.0
2.657 1.0914 -0.3527 30.0
2.6479 1.0822 -0.3512 30.0
2.6461 1.0761 -0.3507 31.0
2.6517 1.073 -0.3512 31.0
2.6535 1.0683 -0.3512 33.0
2.6517 1.0622 -0.3507 32.0
8.7615 3.9247 1.5205 9.0
8.8044 3.9255 1.5268 9.0
8.8245 3.9142 1.529 1.0
8.8621 3.9123 1.5343 1.0
10.2018 4.4825 1.7649 5.0
10.1897 4.456 1.7615 5.0
10.1948 4.4392 1.7611 5.0
10.1989 4.4198 1.7605 7.0
10.2085 4.4028 1.7608 7.0
10.198 4.3772 1.7577 7.0
10.1874 4.3516 1.7546 7.0
10.1859 4.33 1.753 7.0
10.1771 4.3052 1.7502 7.0
10.1773 4.2844 1.7489 7.0
10.1866 4.2674 1.7493 7.0
10.1703 4.2397 1.7452 7.0
10.1667 4.2174 1.7433 7.0
10.1595 4.1937 1.7408 7.0
10.1668 4.1759 1.7408 7.0
10.1667 4.1552 1.7396 7.0
10.1465 4.1263 1.7349 7.0
10.1427 4.1041 1.733 7.0
10.1426 4.0835 1.7317 7.0
10.1423 4.0628 1.7305 7.0
2.7241 1.2146 -0.2609 1.0
2.69 1.1932 -0.2575 1.0
2.6629 1.1756 -0.2547 1.0
2.6723 1.1742 -0.2554 1.0
2.6634 1.1647 -0.2543 1.0
2.6323 1.1462 -0.2512 1.0
2.6453 1.1464 -0.2522 8.0
2.6564 1.1457 -0.2531 30.0
2.6712 1.1465 -0.2543 48.0
2.6476 1.1309 -0.2519 40.0
2.6312 1.1185 -0.2501 48.0
2.635 1.1147 -0.2503 42.0
2.6369 1.1101 -0.2503 42.0
2.6389 1.1055 -0.2503 45.0
2.6408 1.1009 -0.2503 45.0
2.6243 1.0886 -0.2486 45.0
2.6299 1.0856 -0.2489 40.0
2.6355 1.0825 -0.2493 42.0
2.63 1.0749 -0.2486 43.0
2.6355 1.0718 -0.2489 45.0
2.6263 1.0627 -0.2479 43.0
2.6319 1.0596 -0.2482 43.0
2.6263 1.052 -0.2475 45.0
8.1361 3.6446 1.7329 7.0
8.1461 3.632 1.7337 7.0
8.1566 3.6179 1.7345 7.0
8.1773 3.61 1.7375 7.0
8.1872 3.5973 1.7383 7.0
8.2096 3.5901 1.7417 7.0
8.2153 3.5772 1.7417 9.0
8.2323 3.5676 1.744 7.0
8.2421 3.5547 1.7448 7.0
8.2682 3.5489 1.749 7.0
8.2779 3.536 1.7497 7.0
8.2877 3.523 1.7505 7.0
8.2957 3.5093 1.7509 9.0
8.3181 3.5017 1.7543 9.0
8.326 3.488 1.7547 7.0
8.3465 3.4795 1.7577 7.0
8.3635 3.4694 1.76 9.0
8.3586 3.4503 1.7577 7.0
8.3719 3.4387 1.7593 7.0
8.3943 3.4308 1.7627 7.0
8.4057 3.4183 1.7638 7.0
8.4317 3.4117 1.768 7.0
8.4431 3.3992 1.7692 7.0
8.4453 3.383 1.7684 9.0
2.7636 1.2322 -0.1586 1.0
2.7915 1.2382 -0.16 1.0
2.8041 1.2094 -0.16 1.0
2.7916 1.1982 -0.1592 1.0
2.7165 1.1604 -0.1548 1.0
2.7847 1.1838 -0.1586 1.0
2.8383 1.2007 -0.1615 1.0
2.7851 1.1725 -0.1584 1.0
2.8166 1.18 -0.16 1.0
2.8039 1.1689 -0.1592 1.0
2.8023 1.1625 -0.159 1.0
2.8339 1.1698 -0.1607 1.0
2.8544 1.1724 -0.1617 1.0
2.8453 1.1629 -0.1611 1.0
2.8325 1.1519 -0.1603 1.0
2.7975 1.132 -0.1582 1.0
2.8291 1.139 -0.1598 1.0
2.8385 1.1371 -0.1603 1.0
6.4807 2.903 1.6394 11.0
6.4769 2.8878 1.6372 19.0
6.4753 2.8721 1.6354 12.0
6.4767 2.8593 1.6345 5.0
6.4781 2.8464 1.6336 4.0
6.4974 2.8413 1.6372 1.0
6.5233 2.8405 1.6426 1.0
6.5604 2.843 1.6507 4.0
6.5743 2.8354 1.6529 9.0
6.6365 2.8485 1.6673 31.0
6.611 2.8239 1.6597 16.0
6.598 2.8048 1.6552 6.0
6.5562 2.7735 1.6435 4.0
6.5503 2.7575 1.6408 5.0
6.5515 2.7446 1.6399 5.0
6.5437 2.7279 1.6367 5.0
6.5556 2.7195 1.6385 6.0
6.5622 2.7088 1.639 6.0
6.5687 2.698 1.6394 8.0
6.5662 2.6836 1.6376 5.0
6.5636 2.6692 1.6358 5.0
6.599 2.6702 1.6435 5.0
6.6452 2.6754 1.6538 6.0
6.6842 2.6776 1.6624 12.0
3.0347 1.2589 -0.0573 1.0
3.1035 1.2811 -0.0586 1.0
5.4161 2.4261 1.5902 9.0
5.408 2.4112 1.5866 7.0
5.409 2.3992 1.5855 9.0
5.4256 2.3952 1.5891 9.0
5.4351 2.3881 1.5907 9.0
5.4445 2.3809 1.5923 7.0
5.4341 2.3662 1.5881 7.0
5.4489 2.3613 1.5912 7.0
5.4494 2.3503 1.5902 7.0
5.4624 2.3446 1.5928 6.0
5.4683 2.3358 1.5933 7.0
5.4688 2.3247 1.5923 7.0
5.4746 2.3159 1.5928 6.0
5.484 2.3086 1.5943 7.0
5.4933 2.3013 1.5959 6.0
5.4973 2.2917 1.5959 7.0
5.4978 2.2806 1.5948 6.0
5.5089 2.274 1.5969 6.0
5.5093 2.2629 1.5959 6.0
5.5257 2.2584 1.5995 6.0
5.5279 2.248 1.599 7.0
5.5354 2.2398 1.6 6.0
5.5303 2.2265 1.5974 6.0
5.5396 2.219 1.599 6.0
2.6183 1.0435 -0.7552 58.0
2.6129 1.0361 -0.7532 56.0
2.5967 1.0245 -0.748 58.0
2.5985 1.0199 -0.748 58.0
2.6039 1.0168 -0.749 56.0
2.6093 1.0136 -0.7501 56.0
2.6092 1.0084 -0.7495 55.0
2.5894 0.9955 -0.7433 55.0
2.5965 0.9931 -0.7449 56.0
2.5928 0.9865 -0.7433 55.0
2.6016 0.9851 -0.7454 53.0
2.6033 0.9806 -0.7454 55.0
2.5942 0.972 -0.7423 53.0
2.5922 0.9661 -0.7413 50.0
2.5903 0.9602 -0.7402 52.0
2.5992 0.9584 -0.7423 55.0
2.6045 0.9552 -0.7433 53.0
2.5808 0.9414 -0.7361 50.0
2.5842 0.9375 -0.7366 50.0
2.5859 0.933 -0.7366 50.0
2.5966 0.9318 -0.7392 43.0
2.5982 0.9272 -0.7392 37.0
2.5852 0.9175 -0.735 35.0
2.5814 0.9111 -0.7335 30.0
3.0948 1.2334 0.0582 32.0
3.1062 1.2317 0.0583 28.0
3.1158 1.2292 0.0585 33.0
3.0919 1.2136 0.058 30.0
3.0958 1.2089 0.058 33.0
3.1017 1.2049 0.0581 32.0
3.0982 1.1973 0.058 30.0
3.1077 1.1948 0.0581 30.0
3.0893 1.1815 0.0577 29.0
3.0876 1.1747 0.0577 24.0
3.0838 1.1677 0.0576 22.0
3.0915 1.1645 0.0577 23.0
3.0916 1.1584 0.0576 22.0
3.0843 1.1495 0.0575 23.0
3.0788 1.1413 0.0573 21.0
3.0864 1.138 0.0574 22.0
3.0884 1.1326 0.0574 22.0
3.0903 1.1272 0.0574 20.0
3.0791 1.1171 0.0572 20.0
3.066 1.1063 0.0569 18.0
3.0793 1.105 0.0571 18.0
3.0755 1.0976 0.057 20.0
3.0831 1.0942 0.0571 18.0
3.0699 1.0835 0.0568 18.0
2.5995 1.0361 -0.6461 8.0
2.614 1.0365 -0.6492 16.0
2.6068 1.0284 -0.647 41.0
2.6122 1.0253 -0.6479 52.0
2.6085 1.0186 -0.6465 64.0
2.5849 1.0042 -0.6402 50.0
2.5975 1.0039 -0.6429 52.0
2.5956 0.9979 -0.642 50.0
2.5955 0.9927 -0.6416 52.0
2.5863 0.984 -0.6389 52.0
2.5806 0.9772 -0.6371 50.0
2.5823 0.9727 -0.6371 52.0
2.5968 0.973 -0.6402 55.0
2.5875 0.9643 -0.6375 55.0
2.5819 0.9571 -0.6357 55.0
2.5817 0.9519 -0.6353 52.0
2.5834 0.9474 -0.6353 52.0
2.585 0.9429 -0.6353 52.0
2.5885 0.9391 -0.6357 55.0
2.5736 0.9286 -0.6317 52.0
2.5716 0.9228 -0.6308 50.0
2.5824 0.9216 -0.633 55.0
2.5766 0.9145 -0.6312 55.0
2.5801 0.9106 -0.6317 52.0
2.608 1.0394 -0.5457 41.0
2.5952 1.0291 -0.5427 39.0
2.597 1.0245 -0.5427 39.0
2.5933 1.0179 -0.5415 37.0
2.6005 1.0155 -0.5427 39.0
2.5931 1.0074 -0.5408 38.0
2.5857 0.9993 -0.5388 39.0
2.582 0.9927 -0.5377 36.0
2.5874 0.9896 -0.5385 38.0
2.5946 0.9872 -0.5396 39.0
2.598 0.9838 -0.54 38.0
2.5813 0.9723 -0.5362 37.0
2.583 0.9678 -0.5362 38.0
2.581 0.9619 -0.5354 37.0
2.5901 0.9601 -0.5369 37.0
2.588 0.9543 -0.5362 37.0
2.5786 0.9457 -0.5339 38.0
2.5711 0.9378 -0.532 39.0
2.5819 0.9367 -0.5339 38.0
2.578 0.9302 -0.5327 39.0
2.5852 0.9277 -0.5339 37.0
2.5702 0.9172 -0.5304 39.0
2.5755 0.914 -0.5312 39.0
2.5733 0.9082 -0.5304 41.0
5.5524 2.2129 0.5229 2.0
5.5489 2.2003 0.5222 2.0
5.5156 2.176 0.5188 2.0
5.5194 2.1664 0.5188 2.0
5.5158 2.1538 0.5181 2.0
5.5158 2.1428 0.5177 2.0
5.5047 2.1274 0.5163 2.0
5.4972 2.1135 0.5153 2.0
5.486 2.0982 0.5139 2.0
5.4934 2.09 0.5142 2.0
5.4743 2.0729 0.5121 2.0
5.4816 2.0648 0.5125 2.0
5.461 2.0461 0.5102 2.0
5.4515 2.0317 0.509 4.0
5.47 2.0277 0.5104 4.0
5.4754 2.0189 0.5106 6.0
5.4639 2.0038 0.5092 11.0
5.458 1.9909 0.5083 13.0
5.4484 1.9766 0.5071 13.0
5.4537 1.9678 0.5072 20.0
5.4384 1.9515 0.5055 20.0
5.4455 1.9434 0.5059 18.0
5.4395 1.9305 0.505 27.0
5.4373 1.919 0.5045 24.0
2.6791 1.0678 -0.4568 49.0
2.6828 1.0638 -0.4571 45.0
2.6773 1.0562 -0.4559 43.0
2.6718 1.0487 -0.4546 43.0
2.6736 1.044 -0.4546 41.0
2.6736 1.0386 -0.4543 40.0
2.6717 1.0325 -0.4537 38.0
2.6735 1.0279 -0.4537 38.0
2.6642 1.019 -0.4518 38.0
2.6605 1.0122 -0.4508 37.0
2.6584 1.0066 -0.4502 37.0
2.6601 1.002 -0.4502 36.0
2.66 0.9967 -0.4499 38.0
2.6525 0.9886 -0.4483 37.0
2.6524 0.9832 -0.448 38.0
2.6485 0.9766 -0.4471 34.0
2.6521 0.9726 -0.4474 38.0
2.6556 0.9687 -0.4477 36.0
2.6499 0.9613 -0.4465 37.0
2.6441 0.954 -0.4452 34.0
2.6421 0.9481 -0.4446 36.0
2.64 0.9421 -0.444 33.0
2.6453 0.9388 -0.4446 34.0
2.6302 0.9283 -0.4418 33.0
10.1569 4.0481 1.3425 7.0
10.1584 4.0282 1.3418 7.0
10.1636 4.0097 1.3415 7.0
10.1576 3.9869 1.3398 7.0
10.1479 3.9626 1.3376 7.0
10.1419 3.9399 1.3359 7.0
10.1432 3.92 1.3352 7.0
10.1556 3.9045 1.3359 7.0
10.1457 3.8804 1.3337 7.0
10.1265 3.8528 1.3303 7.0
10.1288 3.8354 1.3298 7.0
10.1169 3.8108 1.3274 7.0
10.1273 3.7945 1.3279 7.0
10.119 3.7713 1.3259 7.0
10.1107 3.7481 1.324 7.0
10.1042 3.7256 1.3223 7.0
10.0939 3.7018 1.3201 7.0
10.1022 3.6849 1.3203 7.0
10.1161 3.67 1.3213 7.0
10.0982 3.6435 1.3181 7.0
10.0896 3.6205 1.3162 2.0
10.1295 3.6149 1.3206 2.0
10.1396 3.5986 1.3211 2.0
10.1346 3.5769 1.3196 2.0
2.6499 1.0561 -0.3503 30.0
2.648 1.05 -0.3498 31.0
2.6462 1.0439 -0.3493 33.0
2.648 1.0393 -0.3493 30.0
2.6461 1.0333 -0.3488 30.0
2.6405 1.0258 -0.3478 30.0
2.6367 1.019 -0.3471 30.0
2.644 1.0165 -0.3478 31.0
2.6421 1.0105 -0.3473 31.0
2.6531 1.0094 -0.3485 30.0
2.6343 0.9975 -0.3459 31.0
2.6323 0.9915 -0.3454 32.0
2.6415 0.9897 -0.3464 30.0
2.6395 0.9837 -0.3459 30.0
2.6375 0.9777 -0.3454 32.0
2.6243 0.9676 -0.3434 33.0
2.626 0.963 -0.3434 33.0
2.6276 0.9585 -0.3434 33.0
2.6405 0.9579 -0.3449 32.0
2.6347 0.9506 -0.3439 32.0
2.6196 0.94 -0.3417 34.0
2.6212 0.9354 -0.3417 33.0
2.6284 0.9328 -0.3425 33.0
2.6319 0.9289 -0.3427 33.0
10.1421 4.0422 1.7292 7.0
10.1363 4.0194 1.727 7.0
10.1359 3.9988 1.7258 7.0
10.1318 3.9767 1.7239 7.0
10.1369 3.9583 1.7236 7.0
10.1346 3.9371 1.722 7.0
10.1249 3.913 1.7192 7.0
10.1022 3.8839 1.7142 7.0
10.1016 3.8635 1.713 7.0
10.1305 3.8543 1.7167 7.0
10.1199 3.8321 1.7139 7.0
10.1044 3.806 1.7101 7.0
10.098 3.7835 1.708 7.0
10.0917 3.7611 1.7058 7.0
10.0945 3.7421 1.7051 7.0
10.0806 3.7169 1.7017 7.0
10.0704 3.6932 1.6989 7.0
10.075 3.675 1.6986 7.0
10.0925 3.6614 1.7004 5.0
10.0952 3.6425 1.6998 1.0
10.1071 3.6268 1.7008 1.0
10.1134 3.6092 1.7008 1.0
10.1383 3.5981 1.7039 1.0
10.1334 3.5765 1.702 1.0
2.6281 1.0475 -0.2475 45.0
2.63 1.0429 -0.2475 43.0
2.6207 1.0339 -0.2465 42.0
2.6206 1.0286 -0.2463 43.0
2.628 1.0262 -0.2468 42.0
2.6316 1.0223 -0.247 47.0
2.626 1.0149 -0.2463 43.0
2.6166 1.006 -0.2453 43.0
2.6146 1.0 -0.2449 46.0
2.6163 0.9954 -0.2449 45.0
2.6216 0.9927 -0.2453 43.0
2.6159 0.9853 -0.2446 46.0
2.6102 0.978 -0.2439 45.0
2.6081 0.972 -0.2435 46.0
2.6061 0.9661 -0.2432 45.0
2.6152 0.9643 -0.2439 48.0
2.6094 0.957 -0.2432 46.0
2.5961 0.947 -0.2418 46.0
2.6015 0.9438 -0.2421 46.0
2.6032 0.9393 -0.2421 45.0
2.6086 0.9361 -0.2425 45.0
2.6064 0.9302 -0.2421 46.0
2.5949 0.9209 -0.2409 48.0
2.604 0.9191 -0.2416 48.0
8.4622 3.3726 1.7707 11.0
8.4845 3.3644 1.7741 16.0
8.483 3.3467 1.7726 20.0
8.4797 3.3283 1.7707 26.0
8.4782 3.3106 1.7692 30.0
8.4766 3.293 1.7677 31.0
8.486 3.2796 1.7684 31.0
8.4936 3.2655 1.7688 26.0
8.4846 3.245 1.7657 22.0
8.4958 3.2323 1.7669 18.0
8.532 3.2308 1.7734 18.0
8.556 3.2228 1.7772 20.0
8.5635 3.2086 1.7776 26.0
8.5599 3.1902 1.7757 26.0
8.5691 3.1766 1.7764 26.0
8.5728 3.161 1.7761 22.0
8.5672 3.1419 1.7738 20.0
8.5764 3.1283 1.7745 16.0
8.5634 3.1067 1.7707 15.0
8.5836 3.097 1.7738 11.0
8.5853 3.0807 1.773 7.0
8.6036 3.0704 1.7757 7.0
8.6108 3.056 1.7761 5.0
8.6346 3.0475 1.7799 6.0
2.8294 1.1277 -0.1596 1.0
2.8722 1.1389 -0.1619 1.0
2.863 1.1295 -0.1613 1.0
2.839 1.1143 -0.1598 1.0
2.8521 1.1137 -0.1605 1.0
2.8577 1.1102 -0.1607 1.0
2.8634 1.1066 -0.1609 1.0
2.8728 1.1045 -0.1613 1.0
2.8934 1.1066 -0.1623 1.0
2.8841 1.0973 -0.1617 1.0
2.8821 1.0913 -0.1615 1.0
2.9008 1.0926 -0.1625 1.0
2.8933 1.0841 -0.1619 1.0
2.8877 1.0762 -0.1615 1.0
2.8802 1.0677 -0.161 1.0
2.8952 1.0675 -0.1617 1.0
2.8915 1.0604 -0.1614 1.0
2.9046 1.0595 -0.162 1.0
2.912 1.0564 -0.1623 1.0
2.8988 1.0459 -0.1615 1.0
2.8988 1.0402 -0.1614 1.0
2.9138 1.0398 -0.1621 1.0
2.9118 1.0334 -0.1619 1.0
2.9381 1.037 -0.1633 3.0
6.6889 2.6659 1.6624 19.0
6.7008 2.6571 1.6642 25.0
6.6891 2.639 1.6601 15.0
6.6973 2.6287 1.661 4.0
6.7001 2.6163 1.6606 3.0
6.7174 2.6095 1.6637 3.0
6.7474 2.6077 1.67 4.0
6.7555 2.5973 1.6709 4.0
6.7637 2.5869 1.6718 6.0
6.77 2.5758 1.6723 7.0
6.7868 2.5699 1.6754 10.0
6.7913 2.5581 1.6754 10.0
6.7921 2.5449 1.6745 10.0
6.8111 2.5385 1.6781 9.0
6.8192 2.5279 1.679 9.0
6.8255 2.5167 1.6795 10.0
6.8335 2.5061 1.6804 10.0
6.8397 2.4949 1.6808 10.0
6.8477 2.4842 1.6817 10.0
6.8612 2.4756 1.684 10.0
6.8563 2.4603 1.6817 12.0
6.8624 2.449 1.6822 9.0
6.8777 2.4409 1.6849 9.0
6.893 2.4328 1.6876 9.0
3.1232 1.2322 -0.0586 1.0
3.1254 1.2267 -0.0586 1.0
3.1275 1.2212 -0.0586 1.0
3.1296 1.2158 -0.0586 1.0
3.0795 1.1901 -0.0576 1.0
3.0928 1.1891 -0.0578 1.0
3.093 1.183 -0.0578 3.0
3.1119 1.184 -0.0581 6.0
3.1119 1.1784 -0.0581 8.0
3.1064 1.1701 -0.0579 8.0
3.0954 1.1598 -0.0577 11.0
3.1049 1.1572 -0.0578 10.0
3.1125 1.1538 -0.0579 10.0
3.1239 1.1518 -0.0581 10.0
3.0996 1.1368 -0.0576 10.0
3.1016 1.1313 -0.0576 10.0
3.0942 1.1225 -0.0575 8.0
3.1074 1.1212 -0.0577 10.0
3.0981 1.1117 -0.0575 8.0
3.0944 1.1043 -0.0573 10.0
3.0906 1.0969 -0.0572 10.0
3.0963 1.0928 -0.0573 10.0
5.5578 2.2151 1.6031 7.0
5.5706 2.2089 1.6057 7.0
5.5637 2.195 1.6026 7.0
5.5657 2.1845 1.6021 7.0
5.5839 2.1804 1.6062 6.0
5.5985 2.1749 1.6093 9.0
5.6023 2.1651 1.6093 9.0
5.5916 2.1498 1.6052 6.0
5.599 2.1414 1.6062 6.0
5.6045 2.1323 1.6067 7.0
5.6278 2.131 1.6124 7.0
5.6351 2.1226 1.6135 9.0
5.6225 2.1066 1.6088 7.0
5.637 2.1009 1.6119 7.0
5.6407 2.091 1.6119 7.0
5.6552 2.0852 1.615 7.0
5.6643 2.0773 1.6166 9.0
5.6679 2.0674 1.6166 7.0
5.666 2.0556 1.615 7.0
5.6823 2.0502 1.6187 7.0
5.6841 2.0397 1.6181 7.0
5.7022 2.0349 1.6223 7.0
5.7057 2.025 1.6223 7.0
5.7038 2.0131 1.6207 9.0
2.5757 0.904 -0.7314 21.0
2.5918 0.9046 -0.7356 17.0
2.5825 0.8963 -0.7325 12.0
2.5785 0.8899 -0.7309 9.0
2.5801 0.8854 -0.7309 4.0
2.5798 0.8802 -0.7304 1.0
2.5777 0.8745 -0.7294 1.0
2.5902 0.8737 -0.7325 1.0
2.588 0.868 -0.7314 1.0
2.6042 0.8683 -0.7356 1.0
3.0737 1.0788 0.0569 16.0
3.0774 1.0741 0.0569 18.0
3.0699 1.0654 0.0567 15.0
3.0793 1.0627 0.0569 15.0
3.0755 1.0554 0.0568 15.0
3.0622 1.0448 0.0565 14.0
3.0734 1.0427 0.0567 13.0
3.0677 1.0348 0.0565 14.0
3.0733 1.0307 0.0566 13.0
3.058 1.0196 0.0563 12.0
3.0541 1.0124 0.0562 11.0
3.0748 1.0133 0.0565 10.0
3.0764 1.0085 0.0565 10.0
3.0725 1.0013 0.0564 10.0
3.0571 0.9904 0.0561 10.0
3.0683 0.9881 0.0563 10.0
3.0643 0.9809 0.0562 10.0
3.068 0.9762 0.0562 9.0
3.0639 0.969 0.0561 9.0
3.0542 0.96 0.0559 9.0
3.0616 0.9565 0.056 10.0
3.048 0.9464 0.0557 10.0
3.0572 0.9435 0.0558 9.0
3.0551 0.9369 0.0558 9.0
2.5743 0.9035 -0.6299 52.0
2.5611 0.8939 -0.6263 50.0
2.5701 0.892 -0.6281 50.0
2.5753 0.8888 -0.629 49.0
2.5824 0.8862 -0.6303 55.0
2.5636 0.8747 -0.6254 50.0
2.5651 0.8703 -0.6254 52.0
2.5704 0.867 -0.6263 50.0
2.5719 0.8625 -0.6263 52.0
2.5734 0.858 -0.6263 52.0
2.5601 0.8486 -0.6227 50.0
2.5578 0.843 -0.6218 49.0
2.5592 0.8389 -0.6218 50.0
2.5643 0.8357 -0.6227 50.0
2.5658 0.8312 -0.6227 50.0
2.5598 0.8243 -0.6209 50.0
2.5631 0.8205 -0.6213 50.0
2.5571 0.8136 -0.6195 50.0
2.5585 0.8092 -0.6195 50.0
2.5674 0.807 -0.6213 49.0
2.5576 0.7991 -0.6186 46.0
2.5515 0.7923 -0.6168 46.0
2.5604 0.7901 -0.6186 46.0
2.5618 0.7857 -0.6186 45.0
8.858 2.8696 0.488 4.0
8.7071 2.8039 0.4794 4.0
8.6473 2.768 0.4758 4.0
8.6521 2.7529 0.4758 4.0
8.6493 2.7354 0.4754 4.0
8.6579 2.7215 0.4756 4.0
8.6283 2.6957 0.4737 4.0
8.6177 2.6759 0.4729 8.0
8.6148 2.6585 0.4725 8.0
8.5697 2.6282 0.4698 13.0
2.5823 0.9063 -0.532 39.0
2.5802 0.9005 -0.5312 41.0
2.5781 0.8948 -0.5304 41.0
2.5648 0.8851 -0.5274 41.0
2.5737 0.8832 -0.5289 41.0
2.5753 0.8787 -0.5289 43.0
2.5768 0.8742 -0.5289 41.0
2.5597 0.8634 -0.5251 43.0
2.565 0.8602 -0.5259 43.0
2.5665 0.8557 -0.5259 43.0
2.5642 0.85 -0.5251 43.0
2.5769 0.8492 -0.5274 43.0
2.5633 0.8403 -0.5243 43.0
2.5592 0.834 -0.5232 46.0
2.5625 0.8301 -0.5236 45.0
2.5639 0.8257 -0.5236 45.0
2.5654 0.8212 -0.5236 43.0
2.5556 0.8131 -0.5213 43.0
2.557 0.8087 -0.5213 45.0
2.5584 0.8042 -0.5213 45.0
2.5654 0.8015 -0.5224 46.0
2.5612 0.7953 -0.5213 45.0
2.5476 0.7862 -0.5182 45.0
2.5527 0.7829 -0.519 45.0
5.4481 1.9122 0.5052 31.0
5.4458 1.9007 0.5046 31.0
5.4284 1.884 0.5027 27.0
5.4223 1.8713 0.5018 29.0
5.4161 1.8586 0.501 31.0
5.425 1.851 0.5015 29.0
5.4282 1.8416 0.5015 33.0
5.4239 1.8296 0.5008 29.0
5.4138 1.8156 0.4996 27.0
5.4057 1.8024 0.4985 31.0
5.4145 1.7949 0.4991 29.0
5.4176 1.7854 0.4991 33.0
5.4242 1.7781 0.4994 31.0
5.4102 1.7631 0.4978 29.0
5.4076 1.7518 0.4973 31.0
5.4107 1.7424 0.4973 31.0
5.4194 1.7348 0.4978 29.0
5.4167 1.7235 0.4973 29.0
5.414 1.7122 0.4968 34.0
5.4056 1.6992 0.4957 31.0
5.4066 1.6892 0.4956 31.0
5.4191 1.6827 0.4964 31.0
5.4106 1.6697 0.4954 34.0
5.4002 1.6562 0.4942 34.0
2.6281 0.9224 -0.4411 33.0
2.6316 0.9185 -0.4415 33.0
2.6369 0.9152 -0.4421 33.0
2.6385 0.9106 -0.4421 34.0
2.627 0.9015 -0.4399 33.0
2.6174 0.8931 -0.438 33.0
2.6208 0.8891 -0.4383 33.0
2.628 0.8864 -0.4393 33.0
2.6239 0.88 -0.4383 33.0
2.6142 0.8716 -0.4365 33.0
2.6194 0.8683 -0.4371 32.0
2.6209 0.8637 -0.4371 32.0
2.6185 0.8584 -0.4365 32.0
2.62 0.8538 -0.4365 33.0
2.6084 0.845 -0.4343 33.0
2.6061 0.8392 -0.4336 33.0
2.6132 0.8365 -0.4346 33.0
2.6128 0.8313 -0.4343 34.0
2.6104 0.8256 -0.4336 33.0
2.6043 0.8186 -0.4324 34.0
2.6058 0.8141 -0.4324 36.0
2.6034 0.8084 -0.4318 34.0
2.6086 0.805 -0.4324 34.0
2.6138 0.8016 -0.433 33.0
10.1558 3.5645 1.3216 2.0
10.162 3.5467 1.3216 2.0
10.1944 3.5381 1.325 2.0
10.2006 3.5203 1.325 2.0
10.2931 3.5321 1.3362 2.0
10.2748 3.5058 1.333 2.0
10.2997 3.4943 1.3354 2.0
10.3321 3.4852 1.3389 2.0
10.3457 3.4697 1.3398 2.0
10.412 3.4717 1.3476 2.0
10.3879 3.4435 1.3437 2.0
10.2582 3.3807 1.3262 2.0
8.5922 2.8167 1.1102 2.0
8.5971 2.8017 1.1102 4.0
8.6171 2.7915 1.1122 25.0
8.6031 2.7704 1.1097 23.0
8.5984 2.7524 1.1085 17.0
8.5938 2.7344 1.1073 19.0
8.5947 2.7182 1.1068 25.0
8.5881 2.6996 1.1054 23.0
8.5776 2.6798 1.1034 23.0
8.5861 2.6661 1.1039 17.0
8.5945 2.6522 1.1044 8.0
2.626 0.9217 -0.3417 34.0
2.6202 0.9145 -0.3407 33.0
2.6142 0.9073 -0.3398 33.0
2.6233 0.9053 -0.3407 34.0
2.6212 0.8995 -0.3403 36.0
2.6265 0.8962 -0.3407 36.0
2.6092 0.8852 -0.3383 36.0
2.6145 0.8819 -0.3388 36.0
2.6123 0.8761 -0.3383 34.0
2.6176 0.8728 -0.3388 36.0
2.6154 0.867 -0.3383 36.0
2.6018 0.8574 -0.3364 37.0
2.6107 0.8558 -0.3373 34.0
2.6084 0.85 -0.3368 37.0
2.6136 0.8467 -0.3373 34.0
2.6076 0.8397 -0.3364 37.0
2.6015 0.8327 -0.3354 37.0
2.5991 0.827 -0.3349 37.0
2.6062 0.8242 -0.3356 38.0
2.6152 0.8221 -0.3366 38.0
2.6072 0.8146 -0.3354 36.0
2.601 0.8076 -0.3344 34.0
2.6006 0.8025 -0.3342 38.0
2.6 0.7974 -0.3339 37.0
10.1546 3.564 1.7045 1.0
10.1757 3.5515 1.707 1.0
10.1931 3.5376 1.7089 1.0
10.244 3.5353 1.7164 1.0
10.3062 3.5367 1.7258 1.0
10.2862 3.5097 1.7214 1.0
10.3485 3.5108 1.7308 1.0
10.3433 3.489 1.7289 1.0
10.3607 3.4747 1.7308 1.0
10.333 3.4453 1.7252 1.0
10.2752 3.4062 1.7145 1.0
10.2286 3.3709 1.7058 1.0
8.567 2.8084 1.4279 4.0
8.5956 2.7846 1.4311 26.0
8.5891 2.7659 1.4292 14.0
8.5977 2.7522 1.4298 8.0
8.6458 2.7509 1.437 8.0
8.6393 2.7323 1.4351 1.0
8.71 2.7379 1.4461 1.0
10.0912 3.1527 1.6745 1.0
10.1306 3.1456 1.6801 1.0
10.1059 3.1186 1.6751 1.0
10.0849 3.0929 1.6707 1.0
2.6 0.9125 -0.2411 48.0
2.6016 0.908 -0.2411 48.0
2.6069 0.9048 -0.2414 48.0
2.5953 0.8957 -0.2402 48.0
2.578 0.8847 -0.2385 49.0
2.5928 0.8847 -0.2397 48.0
2.5981 0.8814 -0.24 48.0
2.6053 0.8788 -0.2405 49.0
2.586 0.8673 -0.2386 48.0
2.5838 0.8615 -0.2383 46.0
2.589 0.8582 -0.2386 48.0
2.5962 0.8556 -0.2392 49.0
2.5881 0.8484 -0.2383 48.0
2.5782 0.8402 -0.2372 48.0
2.5872 0.8381 -0.2379 51.0
2.5735 0.8287 -0.2365 48.0
2.5845 0.8273 -0.2374 49.0
2.5859 0.8228 -0.2374 48.0
2.5816 0.8165 -0.2369 51.0
2.5773 0.8102 -0.2364 48.0
2.5826 0.8069 -0.2367 48.0
2.5878 0.8035 -0.2371 48.0
2.5777 0.7955 -0.236 48.0
2.5715 0.7886 -0.2353 49.0
8.6455 3.0344 1.781 6.0
8.6545 3.0206 1.7818 8.0
8.6671 3.008 1.7833 8.0
8.6687 2.9916 1.7825 10.0
8.6572 2.9708 1.7791 8.0
8.6568 2.9537 1.778 7.0
8.6786 2.9443 1.7814 6.0
8.7451 2.9499 1.794 4.0
8.8229 2.9589 1.8089 2.0
8.8653 2.956 1.8165 2.0
8.8071 2.9195 1.8035 2.0
8.5977 2.8334 1.7596 26.0
8.5697 2.7927 1.752 28.0
8.5391 2.7663 1.7448 13.0
8.5888 2.7658 1.7539 11.0
8.6104 2.7562 1.7574 11.0
8.7275 2.7769 1.7802 2.0
9.0524 2.8629 1.8455 2.0
9.0424 2.8424 1.8425 2.0
9.0698 2.8336 1.847 2.0
9.0972 2.8248 1.8516 2.0
9.1097 2.8112 1.8531 2.0
9.1146 2.7953 1.8531 2.0
2.9361 1.0305 -0.1631 2.0
2.9266 1.0214 -0.1625 5.0
2.9284 1.0163 -0.1625 6.0
2.9321 1.0119 -0.1626 5.0
2.9357 1.0074 -0.1627 1.0
2.9393 1.0029 -0.1628 1.0
2.9316 0.9946 -0.1622 3.0
2.9334 0.9895 -0.1622 5.0
2.9313 0.9831 -0.162 6.0
2.9387 0.9799 -0.1623 3.0
2.929 0.971 -0.1617 1.0
2.9402 0.969 -0.1622 2.0
2.9417 0.9643 -0.1622 3.0
2.9415 0.9586 -0.1621 6.0
2.9261 0.9479 -0.1612 6.0
2.9277 0.9428 -0.1612 5.0
2.9256 0.9365 -0.161 1.0
2.95 0.9386 -0.1622 1.0
2.965 0.9377 -0.163 1.0
2.9571 0.9295 -0.1625 1.0
2.9644 0.9262 -0.1628 1.0
2.9565 0.918 -0.1622 1.0
2.9676 0.9158 -0.1628 1.0
2.9635 0.9089 -0.1625 1.0
6.9064 2.424 1.6898 10.0
6.9033 2.4094 1.688 9.0
6.9185 2.4012 1.6907 12.0
6.9172 2.3872 1.6894 10.0
6.925 2.3764 1.6903 10.0
6.9476 2.3706 1.6948 10.0
6.9407 2.3547 1.6921 10.0
6.9466 2.3432 1.6925 12.0
6.9692 2.3373 1.697 10.0
6.9732 2.3251 1.697 12.0
6.9736 2.3117 1.6961 10.0
6.9795 2.3001 1.6966 10.0
6.9923 2.2922 1.6988 10.0
7.0074 2.2836 1.7015 10.0
7.017 2.2732 1.7029 10.0
7.0265 2.2627 1.7042 10.0
7.0193 2.2469 1.7015 10.0
7.0325 2.2376 1.7038 10.0
7.042 2.2271 1.7051 10.0
7.0402 2.213 1.7038 10.0
7.0608 2.206 1.7078 10.0
7.0572 2.1913 1.706 9.0
7.0685 2.1813 1.7078 9.0
7.0779 2.1707 1.7092 9.0
3.0888 1.0841 -0.0571 10.0
3.0982 1.0813 -0.0573 10.0
3.0888 1.072 -0.0571 10.0
3.0869 1.0653 -0.057 10.0
3.0849 1.0586 -0.0569 10.0
3.1 1.0577 -0.0572 11.0
3.0962 1.0504 -0.0571 10.0
3.0791 1.0386 -0.0567 10.0
3.0771 1.032 -0.0567 10.0
3.0789 1.0266 -0.0567 10.0
3.0882 1.0237 -0.0568 10.0
3.0862 1.0171 -0.0567 10.0
3.0802 1.0097 -0.0566 8.0
3.0801 1.0038 -0.0565 10.0
3.0761 0.9965 -0.0564 10.0
3.0779 0.9912 -0.0564 10.0
3.0834 0.987 -0.0565 10.0
3.0718 0.9774 -0.0563 8.0
3.0754 0.9726 -0.0563 10.0
3.079 0.9678 -0.0563 10.0
3.0826 0.9631 -0.0564 10.0
3.0823 0.9571 -0.0563 8.0
3.0687 0.947 -0.0561 8.0
3.0665 0.9405 -0.056 8.0
5.7037 2.0019 1.6197 9.0
5.7126 1.9938 1.6212 9.0
5.7216 1.9857 1.6228 7.0
5.7268 1.9764 1.6233 7.0
5.723 1.9639 1.6212 7.0
5.741 1.9589 1.6254 7.0
5.7572 1.9532 1.629 6.0
5.7698 1.9462 1.6316 7.0
5.7567 1.9306 1.6269 9.0
5.7619 1.9212 1.6275 7.0
5.7744 1.9142 1.63 9.0
5.7851 1.9065 1.6321 6.0
5.7862 1.8968 1.6316 7.0
5.7859 1.8855 1.6306 7.0
5.7873 1.8748 1.63 6.0
5.8089 1.8706 1.6352 6.0
5.814 1.8611 1.6357 6.0
5.8154 1.8504 1.6352 7.0
5.815 1.839 1.6342 7.0
5.8219 1.83 1.6352 6.0
5.8306 1.8216 1.6368 6.0
5.8356 1.812 1.6373 6.0
5.8351 1.8007 1.6363 6.0
5.853 1.795 1.6404 7.0
0.4691 0.1227 -0.1299 63.0
3.049 0.9293 0.0556 9.0
3.0468 0.9228 0.0556 9.0
3.0465 0.9169 0.0555 7.0
3.0615 0.9156 0.0558 7.0
3.044 0.9046 0.0554 7.0
3.0398 0.8975 0.0553 7.0
3.0452 0.8934 0.0554 9.0
3.0352 0.8847 0.0552 7.0
3.0406 0.8805 0.0553 7.0
3.0421 0.8752 0.0553 9.0
3.0379 0.8682 0.0551 9.0
3.0298 0.8602 0.055 9.0
3.0351 0.856 0.055 7.0
3.0308 0.8491 0.0549 7.0
3.0302 0.8438 0.0549 7.0
3.0259 0.8369 0.0548 9.0
3.0256 0.8305 0.0548 7.0
3.027 0.8253 0.0548 7.0
3.038 0.8231 0.0549 7.0
3.024 0.8137 0.0547 5.0
3.0331 0.8105 0.0548 6.0
3.0345 0.8052 0.0548 5.0
3.0456 0.8024 0.055 6.0
3.0412 0.7956 0.0549 5.0
2.5668 0.7823 -0.6195 50.0
2.5496 0.7722 -0.615 46.0
2.5528 0.7683 -0.6155 45.0
2.556 0.7644 -0.6159 46.0
2.5554 0.7594 -0.6155 43.0
2.553 0.7538 -0.6146 42.0
2.545 0.7466 -0.6123 41.0
2.5425 0.7411 -0.6114 36.0
2.5513 0.7388 -0.6132 31.0
2.5582 0.736 -0.6146 25.0
2.5445 0.7272 -0.611 18.0
2.5308 0.7185 -0.6074 12.0
2.547 0.7183 -0.611 8.0
2.5464 0.7134 -0.6105 5.0
2.5513 0.7104 -0.6114 2.0
2.5581 0.7075 -0.6128 1.0
2.5858 0.7098 -0.6191 1.0
0.5114 0.1394 -0.1224 18.0
0.5191 0.1407 -0.1242 17.0
0.5194 0.1398 -0.1242 17.0
0.5309 0.1419 -0.1269 17.0
0.5161 0.1369 -0.1233 18.0
0.5126 0.135 -0.1224 18.0
0.5166 0.1351 -0.1233 18.0
8.5743 2.6133 0.4698 36.0
8.5731 2.5965 0.4695 13.0
5.3914 1.6226 0.2951 7.0
5.3942 1.6132 0.2951 19.0
5.4047 1.6061 0.2955 29.0
5.4036 1.5955 0.2953 28.0
5.3968 1.5833 0.2948 26.0
5.3938 1.5722 0.2944 28.0
5.3966 1.5627 0.2944 29.0
5.3935 1.5517 0.2941 29.0
5.3962 1.5423 0.2941 29.0
5.3912 1.5306 0.2937 28.0
5.3958 1.5218 0.2938 12.0
5.5105 1.5344 0.2998 1.0
3.1069 0.8593 0.1689 1.0
3.0624 0.8406 0.1664 1.0
3.0368 0.8279 0.165 1.0
3.0189 0.8179 0.1639 1.0
3.0396 0.8179 0.165 1.0
3.0564 0.8167 0.1658 10.0
3.038 0.8004 0.1646 23.0
3.0394 0.7951 0.1646 21.0
2.5503 0.7773 -0.5182 45.0
2.5592 0.7751 -0.5198 45.0
2.5605 0.7706 -0.5198 45.0
2.5468 0.7617 -0.5167 43.0
2.5481 0.7572 -0.5167 43.0
2.5494 0.7528 -0.5167 45.0
2.5545 0.7494 -0.5175 45.0
2.5596 0.7461 -0.5182 45.0
2.542 0.7361 -0.5144 45.0
2.5395 0.7306 -0.5137 43.0
2.5502 0.7289 -0.5156 46.0
2.5496 0.7239 -0.5152 41.0
2.5509 0.7194 -0.5152 43.0
2.5446 0.7129 -0.5137 43.0
2.5381 0.7067 -0.5121 39.0
2.5488 0.7049 -0.514 29.0
2.5558 0.7016 -0.5152 31.0
2.5684 0.7002 -0.5175 31.0
2.5601 0.6936 -0.5156 19.0
2.5821 0.6948 -0.5198 18.0
2.5985 0.6943 -0.5228 18.0
2.6111 0.6928 -0.5251 17.0
2.6256 0.6917 -0.5278 16.0
2.6192 0.6852 -0.5263 17.0
5.4069 1.6479 0.4945 38.0
5.3907 1.6327 0.4928 34.0
5.3992 1.625 0.4933 36.0
5.4021 1.6156 0.4933 36.0
5.3858 1.6005 0.4916 34.0
5.3962 1.5933 0.4923 29.0
5.3951 1.5828 0.4919 31.0
5.3922 1.5717 0.4914 34.0
5.4006 1.5639 0.4919 36.0
5.388 1.5501 0.4905 36.0
5.3869 1.5396 0.4902 36.0
5.38 1.5275 0.4893 38.0
5.375 1.5159 0.4886 31.0
5.3795 1.5071 0.4888 36.0
5.3646 1.4938 0.4872 34.0
5.373 1.486 0.4877 36.0
5.3624 1.472 0.4865 29.0
5.3649 1.4627 0.4865 29.0
5.3634 1.4532 0.4862 25.0
5.3621 1.4428 0.4858 23.0
5.353 1.4303 0.4848 22.0
5.3574 1.4215 0.4849 20.0
5.358 1.4116 0.4848 16.0
5.3624 1.4028 0.4849 18.0
2.5963 0.7913 -0.4299 34.0
2.6052 0.789 -0.4311 36.0
2.599 0.7822 -0.4299 34.0
2.6042 0.7788 -0.4305 34.0
2.6055 0.7743 -0.4305 36.0
2.5993 0.7675 -0.4293 37.0
2.5892 0.7596 -0.4274 37.0
2.5963 0.7567 -0.4283 37.0
2.5995 0.7528 -0.4286 37.0
2.5989 0.7477 -0.4283 38.0
2.5983 0.7426 -0.428 43.0
2.5996 0.7381 -0.428 45.0
2.5952 0.7319 -0.4271 41.0
2.6002 0.7284 -0.4277 43.0
2.5976 0.7233 -0.4271 43.0
2.5988 0.7188 -0.4271 41.0
2.6002 0.7138 -0.4271 36.0
2.6053 0.7103 -0.4277 28.0
2.614 0.7082 -0.4289 18.0
2.6267 0.7068 -0.4308 16.0
2.6394 0.7052 -0.4327 16.0
2.652 0.7037 -0.4346 18.0
2.6685 0.7031 -0.4371 16.0
2.6851 0.7024 -0.4396 16.0
10.1456 3.0921 1.3023 2.0
10.1282 3.0675 1.2994 2.0
10.1601 3.0579 1.3028 2.0
10.1198 3.0265 1.2969 2.0
10.2012 3.0314 1.3067 2.0
10.1303 2.9911 1.2969 2.0
10.1431 2.9757 1.2979 2.0
10.1216 2.9502 1.2945 2.0
10.142 2.9369 1.2964 2.0
10.151 2.9203 1.2969 2.0
10.1369 2.8972 1.2945 2.0
10.142 2.8795 1.2945 2.0
10.0935 2.8467 1.2877 2.0
10.129 2.8376 1.2916 2.0
10.1144 2.8164 1.2891 2.0
10.1231 2.7998 1.2896 2.0
10.1131 2.7761 1.2877 2.0
10.0758 2.747 1.2823 2.0
10.1184 2.7415 1.2872 2.0
10.0849 2.7136 1.2823 2.0
10.0896 2.696 1.2823 2.0
10.0943 2.6783 1.2823 2.0
10.1143 2.6648 1.2843 2.0
10.0805 2.6371 1.2794 2.0
2.6052 0.794 -0.3344 37.0
2.6028 0.7883 -0.3339 36.0
2.589 0.7792 -0.332 34.0
2.5903 0.7747 -0.332 37.0
2.5974 0.7718 -0.3327 39.0
2.5968 0.7668 -0.3325 37.0
2.6039 0.7639 -0.3332 38.0
2.5919 0.7555 -0.3315 37.0
2.5856 0.7487 -0.3305 43.0
2.5945 0.7464 -0.3315 47.0
2.592 0.7408 -0.331 42.0
2.5952 0.7368 -0.3312 39.0
2.585 0.729 -0.3298 38.0
2.5824 0.7235 -0.3293 38.0
2.5931 0.7221 -0.3305 37.0
2.6001 0.7191 -0.3312 29.0
2.6072 0.7157 -0.332 22.0
2.5951 0.7075 -0.3303 13.0
2.623 0.7107 -0.3337 14.0
2.6415 0.7108 -0.3359 11.0
2.6447 0.7067 -0.3361 10.0
2.6574 0.7051 -0.3376 15.0
2.6644 0.702 -0.3383 15.0
2.6694 0.6983 -0.3388 15.0
10.1016 3.0787 1.6726 1.0
10.0805 3.0531 1.6682 1.0
10.1237 3.0469 1.6745 1.0
10.1176 3.0258 1.6726 1.0
10.0964 3.0003 1.6682 1.0
10.1129 2.986 1.6701 1.0
10.1143 2.9672 1.6695 1.0
10.0626 2.933 1.6601 1.0
10.0943 2.9231 1.6645 1.0
10.1373 2.9164 1.6707 1.0
10.1044 2.8879 1.6645 1.0
10.0828 2.8627 1.6601 1.0
10.1144 2.8526 1.6645 1.0
10.0814 2.8243 1.6582 1.0
10.0858 2.8084 1.6582 1.0
10.0526 2.7803 1.6519 1.0
10.0884 2.7693 1.657 1.0
10.0437 2.7382 1.6488 1.0
10.1052 2.7379 1.6582 1.0
10.0832 2.7131 1.6538 1.0
10.0727 2.6914 1.6513 1.0
10.085 2.6759 1.6526 1.0
10.082 2.6562 1.6513 1.0
10.0293 2.6237 1.6419 1.0
2.5672 0.7824 -0.2348 48.0
2.5704 0.7785 -0.235 48.0
2.5756 0.7752 -0.2353 49.0
2.5846 0.773 -0.236 49.0
2.5707 0.7639 -0.2346 49.0
2.5643 0.7572 -0.2339 49.0
2.5676 0.7532 -0.2341 51.0
2.5804 0.7521 -0.2351 63.0
2.5778 0.7465 -0.2348 67.0
2.5715 0.7398 -0.2341 48.0
2.5632 0.7326 -0.2332 48.0
2.5702 0.7297 -0.2338 52.0
2.5696 0.7247 -0.2336 48.0
2.5804 0.7229 -0.2344 43.0
2.57 0.7156 -0.2334 34.0
2.5828 0.7143 -0.2344 21.0
2.5995 0.7136 -0.2358 19.0
2.6162 0.7132 -0.2372 18.0
2.6307 0.7128 -0.2385 16.0
2.6301 0.7077 -0.2383 18.0
2.6409 0.7057 -0.2392 16.0
2.6498 0.7031 -0.2399 18.0
2.6645 0.702 -0.2411 15.0
2.687 0.7029 -0.243 16.0
9.1082 2.776 1.8508 2.0
9.1092 2.7589 1.8501 2.0
9.1403 2.7509 1.8554 2.0
9.1639 2.7406 1.8592 2.0
9.1574 2.7212 1.857 2.0
9.1584 2.7041 1.8562 2.0
9.1782 2.6926 1.8592 2.0
9.1942 2.6799 1.8615 2.0
9.2101 2.6671 1.8638 2.0
9.2186 2.6521 1.8646 2.0
9.2307 2.6382 1.8661 2.0
9.2391 2.6231 1.8669 2.0
9.2625 2.6123 1.8707 2.0
9.2633 2.5951 1.8699 2.0
9.2636 2.5795 1.8692 2.0
9.2832 2.5675 1.8722 2.0
9.2919 2.5507 1.873 2.0
9.3229 2.5417 1.8783 2.0
9.3079 2.5219 1.8745 2.0
9.335 2.5118 1.8791 2.0
9.3242 2.4914 1.876 2.0
9.3589 2.4832 1.8821 2.0
9.3746 2.4699 1.8844 2.0
9.3789 2.4535 1.8844 2.0
2.9766 0.9072 -0.1631 1.0
2.9648 0.8979 -0.1623 1.0
2.9606 0.891 -0.162 2.0
2.9449 0.8807 -0.1611 10.0
2.9464 0.8756 -0.1611 25.0
2.9365 0.867 -0.1605 13.0
2.915 0.8552 -0.1592 2.0
2.9797 0.8685 -0.1627 1.0
2.987 0.865 -0.163 1.0
3.0116 0.8664 -0.1642 1.0
3.0092 0.86 -0.164 1.0
2.9877 0.8482 -0.1628 1.0
2.9968 0.8452 -0.1632 1.0
3.0329 0.8497 -0.1651 1.0
3.0381 0.846 -0.1653 1.0
3.0376 0.8401 -0.1652 1.0
3.0238 0.8301 -0.1643 1.0
3.0311 0.8264 -0.1646 1.0
3.0343 0.8221 -0.1648 1.0
3.0415 0.8184 -0.1651 1.0
3.0371 0.8115 -0.1648 1.0
3.0405 0.8067 -0.1649 2.0
3.0399 0.8009 -0.1648 2.0
3.0394 0.7951 -0.1646 3.0
7.0873 2.16 1.7105 9.0
7.0929 2.1482 1.711 9.0
7.0892 2.1336 1.7092 9.0
7.0966 2.1223 1.7101 10.0
7.1208 2.1161 1.715 9.0
7.1264 2.1042 1.7155 9.0
7.1357 2.0934 1.7168 9.0
7.1374 2.0804 1.7164 9.0
7.1467 2.0695 1.7177 9.0
7.1559 2.0587 1.7191 9.0
7.1632 2.0473 1.72 9.0
7.1705 2.0358 1.7209 9.0
7.1703 2.0222 1.72 9.0
7.1776 2.0108 1.7209 9.0
7.1901 2.0021 1.7231 9.0
7.203 1.9922 1.7254 9.0
7.2125 1.9799 1.7267 9.0
7.214 1.9668 1.7263 8.0
7.2246 1.9575 1.7281 9.0
7.228 1.9449 1.7281 9.0
7.2465 1.9363 1.7317 9.0
7.2555 1.9251 1.733 9.0
7.2551 1.9115 1.7321 9.0
7.2565 1.8983 1.7317 9.0
3.0663 0.9345 -0.056 10.0
3.0679 0.9292 -0.056 10.0
3.0772 0.9261 -0.0561 10.0
3.0692 0.9179 -0.0559 8.0
3.0535 0.9074 -0.0556 10.0
3.0628 0.9043 -0.0557 10.0
3.0644 0.899 -0.0557 10.0
3.0659 0.8936 -0.0557 10.0
3.0598 0.8861 -0.0556 10.0
3.0479 0.8768 -0.0554 11.0
3.0667 0.8765 -0.0557 10.0
3.0606 0.8689 -0.0555 10.0
3.0582 0.8625 -0.0555 10.0
3.0482 0.8539 -0.0553 11.0
3.0476 0.8486 -0.0552 10.0
3.0491 0.8433 -0.0552 11.0
3.0487 0.8369 -0.0552 10.0
3.0502 0.8316 -0.0552 10.0
3.0515 0.8268 -0.0552 10.0
3.0394 0.8178 -0.0549 11.0
3.0389 0.812 -0.0549 11.0
3.0442 0.8077 -0.055 11.0
3.0456 0.8024 -0.055 11.0
3.0547 0.7991 -0.0551 10.0
5.8524 1.7837 1.6394 6.0
5.8666 1.7768 1.6425 6.0
5.8715 1.7671 1.643 4.0
5.8802 1.7585 1.6445 1.0
5.8721 1.745 1.6414 1.0
5.8789 1.7358 1.6425 1.0
5.893 1.7288 1.6456 3.0
5.9053 1.7212 1.6482 6.0
5.9101 1.7115 1.6487 6.0
5.9094 1.7001 1.6476 7.0
5.9124 1.6898 1.6476 6.0
5.9283 1.6831 1.6513 7.0
