# .PCD v0.7 - Point Cloud Data file format
VERSION 0.7
FIELDS x y z intensity
SIZE 4 4 4 4
TYPE F F F F
COUNT 1 1 1 1
WIDTH 1843
HEIGHT 1
VIEWPOINT 0 0 0 1 0 0 0
POINTS 1843
DATA ascii
1.1998 6.0928 1.2071 11.0
1.2112 6.0945 1.2078 10.0
1.2222 6.0943 1.2082 10.0
1.2363 6.1095 1.2116 12.0
1.2466 6.1054 1.2113 12.0
1.2576 6.1051 1.2116 14.0
1.2699 6.1106 1.2132 13.0
1.2822 6.1161 1.2147 13.0
1.2941 6.1196 1.2158 13.0
1.3045 6.1214 1.2166 13.0
1.3168 6.1268 1.2181 16.0
1.3263 6.1187 1.217 15.0
1.3395 6.1279 1.2193 13.0
1.3548 6.1467 1.2235 16.0
1.3638 6.1366 1.2219 13.0
1.3775 6.1476 1.2246 15.0
1.3896 6.151 1.2258 15.0
1.4012 6.1524 1.2265 18.0
1.4145 6.1614 1.2288 18.0
1.4271 6.1666 1.2303 16.0
1.4378 6.1641 1.2303 16.0
0.6216 3.2465 -0.1732 117.0
0.6281 3.2493 -0.1734 117.0
0.6337 3.2482 -0.1734 121.0
0.6402 3.251 -0.1737 121.0
0.6435 3.2381 -0.173 115.0
0.65 3.2409 -0.1732 114.0
0.656 3.2418 -0.1733 113.0
0.6629 3.2465 -0.1737 114.0
0.6681 3.2434 -0.1735 113.0
0.6734 3.2402 -0.1734 112.0
0.6782 3.2351 -0.1732 112.0
0.6843 3.2359 -0.1733 112.0
0.6902 3.2387 -0.1735 112.0
0.6967 3.2414 -0.1738 111.0
0.7015 3.2363 -0.1735 111.0
0.7063 3.2312 -0.1733 109.0
0.7132 3.2358 -0.1737 109.0
0.7197 3.2384 -0.1739 108.0
0.7258 3.2391 -0.174 108.0
0.7288 3.2262 -0.1733 108.0
0.734 3.2229 -0.1732 107.0
0.7414 3.2294 -0.1737 107.0
0.7471 3.2281 -0.1737 105.0
0.7495 3.2132 -0.1729 100.0
0.9888 5.1639 1.2138 17.0
0.9963 5.1545 1.212 17.0
1.0079 5.1661 1.2152 16.0
1.0192 5.1758 1.2179 16.0
1.0309 5.1874 1.221 15.0
1.038 5.1761 1.2188 16.0
1.0455 5.1666 1.217 16.0
1.0608 5.1953 1.2242 16.0
1.0683 5.1858 1.2224 16.0
1.0805 5.1992 1.226 15.0
1.0888 5.1935 1.2251 16.0
1.0986 5.1954 1.226 16.0
1.1084 5.2013 1.2278 15.0
1.1191 5.207 1.2296 16.0
1.1303 5.2146 1.2318 15.0
1.139 5.2107 1.2314 16.0
1.1489 5.2125 1.2323 16.0
1.1588 5.2143 1.2332 16.0
1.1692 5.218 1.2345 15.0
1.1805 5.2254 1.2368 15.0
1.1887 5.2195 1.2359 15.0
1.1978 5.2175 1.2359 15.0
1.2074 5.2173 1.2363 15.0
1.2196 5.2284 1.2395 15.0
2.3941 12.5029 -0.2222 14.0
2.4155 12.4967 -0.2222 14.0
2.4396 12.5043 -0.2224 14.0
2.463 12.5079 -0.2225 14.0
2.4872 12.5153 -0.2227 18.0
2.5098 12.5149 -0.2228 14.0
2.5305 12.5046 -0.2227 18.0
2.5559 12.5178 -0.223 14.0
2.5793 12.5211 -0.2231 14.0
2.6028 12.5245 -0.2233 14.0
2.6267 12.5297 -0.2235 14.0
2.6486 12.5251 -0.2235 14.0
2.6658 12.5092 -0.2233 21.0
2.6922 12.526 -0.2236 14.0
0.7015 3.2363 -0.0578 1.0
0.7093 3.2449 -0.058 1.0
0.7106 3.2241 -0.0576 1.0
0.7171 3.2268 -0.0577 1.0
3.2264 14.3987 -0.2576 3.0
3.2357 14.3228 -0.2563 3.0
0.7393 3.2464 -0.0581 1.0
3.2767 14.2725 -0.2556 3.0
3.3025 14.2706 -0.2557 3.0
3.3329 14.2882 -0.2561 3.0
0.8607 4.4949 1.2263 15.0
0.8689 4.4953 1.2268 15.0
0.8756 4.4881 1.2252 15.0
0.8842 4.4903 1.2263 16.0
0.8932 4.4945 1.2278 15.0
0.9026 4.5005 1.2299 16.0
0.9123 4.5084 1.2325 14.0
0.9194 4.503 1.2315 15.0
0.9265 4.4976 1.2304 14.0
0.9347 4.4978 1.2309 16.0
0.9454 4.5094 1.2346 15.0
0.9532 4.5078 1.2346 14.0
0.9595 4.5025 1.2335 14.0
0.9682 4.5046 1.2346 14.0
0.9785 4.5142 1.2377 15.0
0.9855 4.5087 1.2366 15.0
0.9942 4.5108 1.2377 13.0
1.0038 4.5166 1.2397 14.0
1.0117 4.5148 1.2397 14.0
1.0195 4.5131 1.2397 14.0
1.0296 4.5207 1.2423 15.0
1.037 4.517 1.2418 15.0
1.0449 4.5152 1.2418 13.0
1.0537 4.5171 1.2428 16.0
0.8109 3.449 -0.9493 34.0
0.8182 3.4532 -0.9509 33.0
0.8256 3.4574 -0.9525 34.0
0.8294 3.4466 -0.9499 33.0
0.8358 3.447 -0.9504 34.0
0.8432 3.4512 -0.9519 36.0
0.8511 3.4572 -0.954 37.0
0.8585 3.4613 -0.9556 34.0
0.8608 3.4448 -0.9514 34.0
0.8678 3.4471 -0.9525 34.0
0.8766 3.4568 -0.9556 34.0
0.8836 3.459 -0.9566 34.0
0.8921 3.4668 -0.9592 36.0
0.8933 3.4465 -0.954 36.0
0.8996 3.4489 -0.955 37.0
0.9086 3.4585 -0.9581 36.0
0.9166 3.4644 -0.9602 37.0
0.9237 3.4665 -0.9613 37.0
0.9267 3.4537 -0.9581 36.0
0.9327 3.4521 -0.9581 37.0
0.9418 3.4616 -0.9613 36.0
0.9499 3.4674 -0.9633 36.0
0.958 3.4732 -0.9654 37.0
0.9599 3.4566 -0.9613 36.0
5.3463 22.7404 0.4078 5.0
5.385 22.7272 0.4077 5.0
5.4275 22.7294 0.4079 5.0
5.4681 22.7238 0.408 5.0
5.5068 22.7103 0.4079 5.0
5.5464 22.7007 0.4079 5.0
5.5899 22.7065 0.4082 5.0
5.6353 22.72 0.4086 5.0
5.6798 22.7295 0.4089 5.0
5.7155 22.7041 0.4087 5.0
5.7659 22.7367 0.4094 5.0
5.8096 22.7421 0.4097 6.0
5.8532 22.7474 0.41 6.0
5.8959 22.7488 0.4102 6.0
5.9307 22.7356 0.4101 6.0
5.9734 22.7369 0.4103 6.0
6.0192 22.7496 0.4108 6.0
6.0599 22.7429 0.4108 6.0
6.1038 22.7478 0.4111 6.0
6.1424 22.7332 0.411 6.0
6.1873 22.7417 0.4114 6.0
6.2333 22.7541 0.4118 6.0
6.273 22.7431 0.4118 6.0
6.3234 22.7707 0.4125 6.0
0.6445 2.7412 -0.6501 5.0
0.6497 2.742 -0.6506 5.0
0.6549 2.7427 -0.651 5.0
0.6597 2.7416 -0.651 5.0
0.6631 2.7347 -0.6497 5.0
0.6633 2.7146 -0.6452 5.0
0.6671 2.7097 -0.6443 5.0
0.6751 2.7218 -0.6474 5.0
0.6822 2.73 -0.6497 5.0
0.6851 2.7213 -0.6479 5.0
0.686 2.705 -0.6443 5.0
0.6931 2.7132 -0.6465 5.0
0.6964 2.7063 -0.6452 5.0
0.7016 2.707 -0.6456 5.0
0.7083 2.7153 -0.6479 5.0
0.7051 2.6839 -0.6407 5.0
0.7088 2.6789 -0.6398 5.0
0.7165 2.689 -0.6425 6.0
0.7197 2.6821 -0.6411 6.0
0.7279 2.694 -0.6443 6.0
0.7275 2.6739 -0.6398 6.0
0.7285 2.6595 -0.6366 8.0
0.7384 2.677 -0.6411 13.0
0.741 2.6682 -0.6393 15.0
6.2233 22.41 1.2189 17.0
0.7616 3.2394 -0.6468 1.0
0.7654 3.2304 -0.6453 1.0
0.7674 3.2138 -0.6423 1.0
0.7758 3.2239 -0.6446 1.0
0.7851 3.2378 -0.6476 1.0
0.7908 3.2364 -0.6476 1.0
0.7908 3.2122 -0.643 1.0
0.7968 3.2127 -0.6434 1.0
0.7967 3.1884 -0.6388 4.0
0.8112 3.199 -0.6415 51.0
0.811 3.1747 -0.6369 32.0
0.818 3.179 -0.6381 48.0
0.8216 3.17 -0.6365 50.0
0.8266 3.1687 -0.6365 52.0
0.8321 3.1672 -0.6365 58.0
0.8376 3.1658 -0.6365 56.0
0.8381 3.1453 -0.6327 56.0
0.8426 3.1401 -0.632 56.0
0.848 3.1386 -0.632 58.0
0.8556 3.1447 -0.6335 60.0
0.859 3.1356 -0.632 60.0
0.8624 3.1265 -0.6304 58.0
0.8657 3.1175 -0.6289 60.0
3.0733 13.0723 1.1749 4.0
3.1016 13.0902 1.177 4.0
3.13 13.108 1.179 4.0
3.1604 13.1335 1.1818 4.0
3.1861 13.1396 1.1829 4.0
3.2175 13.1688 1.186 4.0
3.25 13.2019 1.1895 4.0
3.2759 13.2078 1.1905 4.0
3.3048 13.2253 1.1926 4.0
3.3356 13.2504 1.1954 4.0
3.3646 13.2677 1.1975 4.0
3.3996 13.3082 1.2017 4.0
3.4278 13.3215 1.2034 4.0
3.4596 13.3483 1.2064 4.0
3.484 13.3563 1.2076 4.0
3.517 13.3869 1.2109 4.0
3.5449 13.398 1.2125 4.0
3.5786 13.4303 1.216 4.0
3.6072 13.4433 1.2177 4.0
3.6452 13.4908 1.2226 4.0
3.6823 13.5344 1.2272 4.0
3.7154 13.5626 1.2303 4.0
3.755 13.6137 1.2355 4.0
3.7872 13.6378 1.2383 4.0
0.816 3.4709 -0.5647 41.0
0.823 3.4733 -0.5654 41.0
0.8139 3.4085 -0.555 35.0
0.8314 3.4551 -0.5629 41.0
0.8407 3.4671 -0.565 39.0
0.8435 3.4522 -0.5629 22.0
0.8495 3.4507 -0.5629 17.0
0.8546 3.4454 -0.5622 16.0
0.8385 3.3557 -0.5478 12.0
0.8087 3.2125 -0.5247 41.0
0.8124 3.2034 -0.5234 40.0
0.8194 3.2077 -0.5244 51.0
0.8235 3.2005 -0.5234 50.0
0.8291 3.1991 -0.5234 52.0
0.8322 3.1902 -0.5222 51.0
0.8357 3.1811 -0.5209 52.0
0.8413 3.1796 -0.5209 51.0
0.8448 3.1705 -0.5197 51.0
0.8503 3.169 -0.5197 50.0
0.8528 3.1561 -0.5178 50.0
0.8562 3.147 -0.5165 51.0
0.8627 3.1493 -0.5172 48.0
0.8693 3.1516 -0.5178 50.0
0.8727 3.1424 -0.5165 52.0
2.247 9.5577 1.2055 9.0
2.2696 9.5789 1.2087 9.0
2.2919 9.5981 1.2116 11.0
2.3147 9.6191 1.2148 9.0
2.338 9.6421 1.2182 9.0
2.3529 9.6303 1.2172 9.0
2.3769 9.6551 1.2209 11.0
2.3947 9.6548 1.2214 11.0
2.4187 9.6794 1.225 9.0
2.4405 9.6945 1.2275 11.0
2.454 9.6767 1.2258 9.0
2.4768 9.6955 1.2287 9.0
2.4976 9.7065 1.2306 9.0
2.522 9.731 1.2343 11.0
2.5408 9.7405 1.236 11.0
2.5593 9.7418 1.2367 11.0
2.5824 9.7603 1.2397 11.0
2.602 9.7654 1.2409 11.0
2.6257 9.7858 1.244 11.0
2.6454 9.7907 1.2453 11.0
2.6641 9.7919 1.246 11.0
2.6848 9.8006 1.2477 9.0
2.7077 9.8169 1.2504 9.0
2.7318 9.8371 1.2535 10.0
0.7542 3.2078 -0.4046 32.0
0.7565 3.193 -0.4029 27.0
0.7635 3.1974 -0.4036 25.0
0.77 3.1999 -0.4041 16.0
0.777 3.2044 -0.4048 8.0
0.8193 3.3534 -0.4239 7.0
0.8556 3.4754 -0.4395 7.0
0.8621 3.4758 -0.4397 6.0
0.8334 3.2865 -0.4163 1.0
0.8392 3.285 -0.4163 1.0
0.8449 3.2836 -0.4163 1.0
0.8558 3.2808 -0.4163 1.0
0.873 3.2762 -0.4163 1.0
0.8787 3.2747 -0.4163 1.0
0.8901 3.2716 -0.4163 1.0
0.8958 3.2701 -0.4163 1.0
0.9015 3.2685 -0.4163 1.0
0.9072 3.2669 -0.4163 1.0
1.7695 7.5264 1.2246 16.0
1.7862 7.5387 1.2271 16.0
1.7989 7.5336 1.2268 16.0
1.8088 7.5171 1.2246 15.0
1.8257 7.5292 1.2271 16.0
1.8421 7.5395 1.2293 16.0
1.8609 7.5593 1.233 15.0
1.8736 7.5541 1.2327 16.0
1.8868 7.5508 1.2327 13.0
1.9063 7.5724 1.2368 15.0
1.9195 7.5691 1.2368 11.0
1.9395 7.5925 1.2412 13.0
1.9508 7.5815 1.2399 13.0
1.9695 7.5991 1.2433 16.0
1.9824 7.5998 1.244 16.0
2.0022 7.6212 1.248 16.0
2.0175 7.6253 1.2493 16.0
2.0242 7.5969 1.2452 13.0
2.0426 7.6125 1.2483 12.0
2.0631 7.6356 1.2527 18.0
2.0795 7.6434 1.2546 18.0
2.0955 7.6493 1.2562 16.0
2.1104 7.6514 1.2571 15.0
2.1253 7.6534 1.258 16.0
0.7515 3.1963 -0.2873 100.0
0.7566 3.1931 -0.2871 93.0
0.7709 3.2286 -0.2904 24.0
0.826 3.4325 -0.3089 15.0
0.8385 3.4582 -0.3113 11.0
0.8417 3.4451 -0.3103 1.0
0.8316 3.3779 -0.3043 1.0
0.8327 3.3571 -0.3026 1.0
0.826 3.3054 -0.2981 1.0
0.9002 3.2859 -0.2981 1.0
1.4508 6.1711 1.2322 15.0
1.4611 6.1666 1.2319 15.0
1.4769 6.1851 1.2361 15.0
1.4895 6.1901 1.2376 14.0
1.4985 6.1799 1.2361 15.0
1.5125 6.1906 1.2387 18.0
1.5257 6.1975 1.2406 14.0
1.5389 6.2044 1.2425 16.0
1.5511 6.2074 1.2437 15.0
1.5596 6.1951 1.2418 15.0
1.5723 6.2 1.2433 15.0
1.587 6.2125 1.2464 18.0
1.5998 6.2173 1.2479 16.0
1.6121 6.2202 1.249 15.0
1.6224 6.2196 1.2494 16.0
1.6342 6.2205 1.2502 16.0
1.6476 6.2272 1.2521 18.0
1.661 6.2338 1.254 19.0
1.6749 6.2422 1.2563 20.0
1.6874 6.245 1.2574 21.0
1.6936 6.225 1.254 20.0
1.7092 6.2391 1.2574 21.0
1.7232 6.2474 1.2597 21.0
1.7383 6.2595 1.2628 25.0
0.7693 3.2722 -0.1762 33.0
0.8197 3.4593 -0.1863 13.0
0.8317 3.4832 -0.1877 12.0
0.8401 3.4914 -0.1882 11.0
0.8472 3.4938 -0.1884 12.0
0.8504 3.4807 -0.1878 11.0
0.8594 3.4908 -0.1884 11.0
0.8669 3.4952 -0.1887 11.0
0.8749 3.5014 -0.1891 11.0
0.8835 3.5095 -0.1897 10.0
0.8842 3.4867 -0.1885 11.0
0.8933 3.4968 -0.1891 11.0
0.9004 3.4991 -0.1894 11.0
0.9095 3.5091 -0.19 11.0
0.914 3.5038 -0.1898 11.0
0.9191 3.4983 -0.1896 11.0
0.9247 3.4948 -0.1895 11.0
0.9328 3.5009 -0.1899 11.0
0.9426 3.5128 -0.1906 11.0
0.9456 3.4995 -0.19 11.0
0.9496 3.4902 -0.1896 11.0
0.9594 3.502 -0.1903 10.0
0.9655 3.5003 -0.1903 11.0
0.9753 3.5121 -0.191 11.0
1.2291 5.2282 1.2399 15.0
1.2378 5.2241 1.2395 16.0
1.2469 5.222 1.2395 15.0
1.2583 5.2293 1.2417 15.0
1.2734 5.2517 1.2476 15.0
1.2807 5.2419 1.2458 16.0
1.2894 5.2377 1.2453 18.0
1.3004 5.243 1.2471 17.0
1.3086 5.237 1.2462 15.0
1.3197 5.2422 1.248 15.0
1.3317 5.2513 1.2507 17.0
1.3428 5.2565 1.2525 17.0
1.351 5.2504 1.2516 17.0
1.3606 5.2499 1.2521 16.0
1.3723 5.2609 1.2552 18.0
1.3835 5.2661 1.257 17.0
1.3907 5.2561 1.2552 17.0
1.4019 5.2612 1.257 17.0
1.4131 5.2663 1.2588 18.0
1.4253 5.2751 1.2615 18.0
1.4345 5.2726 1.2615 18.0
1.4427 5.2663 1.2606 18.0
1.4565 5.2807 1.2647 18.0
1.4673 5.2838 1.266 17.0
3.5335 15.0299 -0.2695 3.0
2.3214 9.7972 -0.1757 3.0
2.3348 9.7776 -0.1755 3.0
2.3532 9.7793 -0.1756 9.0
2.3759 9.7985 -0.176 12.0
2.394 9.7982 -0.1761 21.0
2.4116 9.796 -0.1761 25.0
2.4253 9.7782 -0.1759 28.0
2.4433 9.7778 -0.1759 25.0
2.4638 9.7871 -0.1762 9.0
2.4833 9.7925 -0.1763 3.0
2.5069 9.8133 -0.1768 3.0
1.1596 4.5065 -0.0812 1.0
1.1664 4.5006 -0.0812 1.0
1.1705 4.4871 -0.0809 1.0
1.1803 4.4928 -0.0811 1.0
1.1882 4.4908 -0.0811 1.0
1.1878 4.4578 -0.0805 1.0
1.1925 4.4441 -0.0803 1.0
1.2075 4.469 -0.0808 1.0
1.2101 4.4476 -0.0805 1.0
1.2136 4.4301 -0.0802 1.0
1.2213 4.428 -0.0802 1.0
1.2344 4.4451 -0.0805 1.0
1.0651 4.5303 1.247 14.0
1.073 4.5284 1.247 15.0
1.08 4.5228 1.246 15.0
1.0861 4.5134 1.2439 15.0
1.0976 4.5265 1.248 16.0
1.1064 4.5284 1.2491 16.0
1.1157 4.532 1.2506 16.0
1.1241 4.532 1.2511 16.0
1.1301 4.5225 1.2491 16.0
1.1389 4.5243 1.2501 16.0
1.1492 4.5316 1.2527 16.0
1.1633 4.554 1.2594 16.0
1.1684 4.5407 1.2563 15.0
1.1768 4.5405 1.2568 18.0
1.1825 4.5331 1.2553 15.0
1.1933 4.5422 1.2584 16.0
1.2032 4.5476 1.2604 15.0
1.2121 4.5492 1.2615 16.0
1.2181 4.5396 1.2594 15.0
1.2255 4.5356 1.2589 16.0
1.238 4.5502 1.2636 16.0
1.2469 4.5518 1.2646 15.0
1.2549 4.5496 1.2646 16.0
1.2608 4.54 1.2625 15.0
0.967 3.4587 -0.9623 36.0
0.9756 3.4663 -0.9649 38.0
0.9822 3.4664 -0.9654 37.0
0.9904 3.4721 -0.9675 37.0
0.9943 3.463 -0.9654 36.0
0.9998 3.4594 -0.9649 38.0
1.0085 3.4669 -0.9675 36.0
1.0168 3.4726 -0.9695 36.0
1.0228 3.4708 -0.9695 30.0
1.0239 3.4523 -0.9649 10.0
0.7785 2.6083 -0.7294 1.0
0.7842 2.6106 -0.7304 4.0
0.7871 2.6037 -0.7288 7.0
0.7916 2.6023 -0.7288 10.0
0.7911 2.5843 -0.7242 12.0
0.791 2.5681 -0.72 12.0
0.7927 2.5575 -0.7174 12.0
0.7966 2.5543 -0.7169 12.0
0.8016 2.5547 -0.7174 12.0
0.8043 2.5478 -0.7159 12.0
0.8076 2.5427 -0.7149 12.0
0.8132 2.545 -0.7159 12.0
0.8182 2.5454 -0.7164 12.0
0.8227 2.544 -0.7164 12.0
6.3621 22.7558 0.4124 6.0
6.3639 22.6099 0.41 6.0
6.3793 22.5141 0.4085 5.0
6.3808 22.3702 0.406 5.0
6.4104 22.3264 0.4055 11.0
6.4466 22.3056 0.4053 28.0
6.4906 22.3116 0.4056 34.0
6.5323 22.3098 0.4058 28.0
6.5735 22.306 0.4059 5.0
6.63 22.354 0.407 5.0
4.9039 16.3248 0.2975 2.0
4.998 15.4555 0.2835 2.0
0.7488 2.6782 -0.642 20.0
0.7471 2.6543 -0.6366 22.0
0.7523 2.6549 -0.6371 27.0
0.7606 2.6667 -0.6402 35.0
0.7648 2.6635 -0.6398 39.0
0.7705 2.6659 -0.6407 45.0
0.7735 2.6589 -0.6393 44.0
0.7759 2.6501 -0.6375 41.0
0.7822 2.6544 -0.6389 23.0
0.7785 2.625 -0.6321 11.0
0.7809 2.6161 -0.6303 6.0
0.7838 2.6092 -0.629 6.0
0.7844 2.5947 -0.6258 6.0
0.7883 2.5915 -0.6254 6.0
0.7951 2.5976 -0.6272 5.0
0.7985 2.5924 -0.6263 5.0
0.7973 2.5724 -0.6218 5.0
0.8029 2.5748 -0.6227 5.0
0.8103 2.5827 -0.6249 6.0
0.8154 2.5831 -0.6254 5.0
0.8176 2.5742 -0.6236 6.0
0.8191 2.5635 -0.6213 6.0
0.8236 2.5621 -0.6213 6.0
0.8287 2.5625 -0.6218 6.0
6.2667 22.4145 1.2197 17.0
6.2928 22.3574 1.2172 16.0
6.3285 22.3349 1.2166 16.0
6.3686 22.3276 1.2168 16.0
6.412 22.3318 1.2176 16.0
6.4587 22.3475 1.2191 17.0
6.5066 22.3668 1.2208 17.0
6.5647 22.4206 1.2243 17.0
5.2815 16.4303 0.9045 6.0
5.3028 16.3983 0.9032 6.0
0.8712 3.116 -0.6289 56.0
0.8777 3.1182 -0.6297 62.0
0.882 3.1129 -0.6289 62.0
0.8842 3.1 -0.6266 60.0
0.8875 3.0909 -0.6251 60.0
0.8951 3.0969 -0.6266 58.0
0.8994 3.0916 -0.6259 62.0
0.9048 3.09 -0.6259 58.0
0.9057 3.0734 -0.6228 58.0
0.9099 3.068 -0.622 58.0
0.9153 3.0664 -0.622 56.0
0.9207 3.0648 -0.622 58.0
0.9266 3.0651 -0.6224 45.0
0.9188 3.0203 -0.6136 37.0
0.912 2.9792 -0.6056 33.0
0.9068 2.9439 -0.5988 27.0
0.9084 2.931 -0.5965 23.0
0.9112 2.9219 -0.5949 20.0
0.911 2.9035 -0.5915 18.0
0.9137 2.8944 -0.59 17.0
0.9205 2.8984 -0.5911 18.0
0.9244 2.8931 -0.5904 17.0
0.9295 2.8914 -0.5904 18.0
0.9303 2.8767 -0.5877 17.0
3.8175 13.6542 1.2404 4.0
3.8505 13.6802 1.2434 9.0
3.8803 13.6945 1.2453 9.0
3.9097 13.7069 1.247 9.0
3.9341 13.7019 1.2472 4.0
3.9691 13.7333 1.2507 4.0
4.0048 13.7666 1.2543 5.0
4.0344 13.7787 1.2561 5.0
4.0708 13.8137 1.2599 5.0
4.1097 13.8562 1.2645 5.0
4.1395 13.8681 1.2662 5.0
4.1763 13.9028 1.27 5.0
4.2087 13.9222 1.2725 5.0
4.2562 13.9911 1.2794 5.0
4.2823 13.9894 1.28 5.0
4.3132 14.0028 1.2819 5.0
4.3535 14.0466 1.2866 5.0
4.3899 14.0771 1.2901 5.0
4.427 14.1093 1.2937 5.0
4.4636 14.1395 1.2972 5.0
4.5003 14.1697 1.3007 5.0
4.5408 14.2112 1.3052 5.0
4.5778 14.2412 1.3087 5.0
4.6113 14.2597 1.3112 5.0
0.876 3.1333 -0.5153 50.0
0.8783 3.1203 -0.5134 48.0
0.8859 3.1264 -0.5147 52.0
0.8913 3.1249 -0.5147 51.0
0.8957 3.1195 -0.514 50.0
0.8989 3.1103 -0.5128 52.0
0.9022 3.1012 -0.5115 52.0
0.9065 3.0958 -0.5109 50.0
0.913 3.098 -0.5115 52.0
0.9173 3.0926 -0.5109 52.0
0.9193 3.0797 -0.509 51.0
0.9246 3.0781 -0.509 50.0
0.9289 3.0727 -0.5084 48.0
0.9331 3.0673 -0.5078 52.0
0.9396 3.0694 -0.5084 50.0
0.9414 3.0564 -0.5065 51.0
0.9456 3.051 -0.5059 48.0
0.9509 3.0494 -0.5059 48.0
0.9586 3.0552 -0.5072 50.0
0.9628 3.0498 -0.5065 51.0
0.9645 3.0368 -0.5047 50.0
0.9674 3.0276 -0.5034 52.0
0.9727 3.0259 -0.5034 51.0
0.9804 3.0317 -0.5047 46.0
2.7575 9.8629 1.2574 10.0
2.7709 9.8447 1.2557 10.0
2.7919 9.8532 1.2574 10.0
2.8183 9.8808 1.2616 12.0
2.8427 9.9006 1.2648 10.0
2.8671 9.9204 1.2679 12.0
2.8833 9.9116 1.2674 12.0
2.9045 9.9199 1.2691 12.0
2.9258 9.9281 1.2709 12.0
2.9499 9.9459 1.2738 10.0
2.9712 9.954 1.2755 10.0
2.9909 9.9564 1.2765 10.0
3.0145 9.9721 1.2791 10.0
3.0366 9.982 1.2811 10.0
3.0633 10.007 1.285 10.0
3.0854 10.0169 1.2869 10.0
3.1052 10.019 1.2879 10.0
3.1263 10.025 1.2894 10.0
3.1509 10.0422 1.2923 10.0
3.1774 10.0651 1.296 12.0
3.1986 10.0709 1.2974 10.0
3.2204 10.0786 1.2991 10.0
3.2398 10.0786 1.2999 10.0
3.2641 10.0937 1.3025 10.0
0.9129 3.2653 -0.4163 1.0
0.9186 3.2637 -0.4163 1.0
0.93 3.2605 -0.4163 1.0
0.9357 3.2589 -0.4163 1.0
0.9414 3.2572 -0.4163 1.0
0.9471 3.2556 -0.4163 1.0
0.9527 3.2539 -0.4163 1.0
0.9584 3.2523 -0.4163 1.0
0.9641 3.2506 -0.4163 1.0
0.9698 3.2489 -0.4163 1.0
0.9617 3.2016 -0.4105 1.0
0.9662 3.1961 -0.41 1.0
0.9775 3.2134 -0.4124 1.0
0.9692 3.1661 -0.4066 1.0
0.9981 3.2403 -0.4163 1.0
0.9861 3.1817 -0.409 1.0
0.9858 3.161 -0.4066 1.0
1.0032 3.1972 -0.4114 1.0
0.9968 3.1575 -0.4066 1.0
1.0023 3.1558 -0.4066 1.0
1.0163 3.1805 -0.41 1.0
1.0151 3.1579 -0.4073 1.0
1.0206 3.1562 -0.4073 1.0
2.1435 7.6668 1.2609 15.0
2.159 7.6706 1.2621 15.0
2.174 7.6725 1.2631 15.0
2.1885 7.6725 1.2637 16.0
2.2024 7.6706 1.264 13.0
2.2191 7.6781 1.2659 13.0
2.2374 7.6913 1.2687 13.0
2.2553 7.7026 1.2712 12.0
2.2687 7.6986 1.2712 13.0
2.2844 7.7022 1.2724 13.0
2.3035 7.7172 1.2756 13.0
2.3227 7.732 1.2787 13.0
2.3356 7.7261 1.2784 12.0
1.9064 6.2668 1.0375 4.0
1.9254 6.2899 1.0419 20.0
1.9294 6.2639 1.0381 32.0
1.9403 6.2605 1.0381 31.0
1.9513 6.2571 1.0381 36.0
1.9598 6.2462 1.0368 29.0
1.9683 6.2352 1.0356 15.0
2.4648 7.7605 1.2896 6.0
2.4891 7.7901 1.2953 12.0
2.5033 7.7876 1.2956 13.0
2.5181 7.787 1.2962 13.0
0.9802 3.2629 -0.2981 1.0
0.9859 3.2612 -0.2981 1.0
0.9916 3.2595 -0.2981 1.0
0.9972 3.2578 -0.2981 1.0
0.9818 3.1875 -0.2918 1.0
0.9791 3.1591 -0.2894 1.0
0.9846 3.1574 -0.2894 1.0
1.0045 3.2013 -0.2935 1.0
0.9956 3.1539 -0.2894 1.0
0.9951 3.1332 -0.2876 1.0
1.0151 3.177 -0.2918 1.0
1.0036 3.1221 -0.2869 1.0
1.014 3.1355 -0.2883 1.0
1.7487 6.2546 1.2624 27.0
1.7612 6.2572 1.2635 28.0
1.7726 6.256 1.2639 31.0
1.7825 6.2491 1.2632 36.0
1.7966 6.2573 1.2654 32.0
1.8032 6.2391 1.2624 19.0
1.8239 6.2699 1.2693 18.0
1.8393 6.2818 1.2723 20.0
1.8469 6.2672 1.27 15.0
1.8651 6.2885 1.275 21.0
1.8767 6.2871 1.2754 21.0
1.8893 6.2894 1.2765 20.0
1.9031 6.2955 1.2784 17.0
1.9153 6.296 1.2792 17.0
1.928 6.2982 1.2803 16.0
1.9372 6.2892 1.2792 20.0
1.9494 6.2896 1.2799 20.0
1.9644 6.2993 1.2826 21.0
1.9748 6.294 1.2822 18.0
1.9787 6.2681 1.2777 33.0
1.9891 6.2627 1.2773 45.0
2.0012 6.263 1.278 45.0
2.0145 6.267 1.2796 43.0
2.0291 6.2746 1.2819 41.0
0.9809 3.5085 -0.1909 11.0
0.9832 3.4933 -0.1902 10.0
0.9921 3.5012 -0.1907 10.0
0.9987 3.5014 -0.1908 13.0
1.007 3.5073 -0.1912 11.0
1.0148 3.5113 -0.1915 11.0
1.0181 3.4999 -0.191 11.0
1.0259 3.5039 -0.1913 11.0
1.0304 3.4963 -0.191 11.0
1.0404 3.5079 -0.1918 11.0
1.0483 3.5119 -0.1921 11.0
1.0521 3.5024 -0.1917 11.0
1.0599 3.5063 -0.192 11.0
1.069 3.514 -0.1925 11.0
1.0751 3.5121 -0.1925 11.0
1.0824 3.514 -0.1927 11.0
1.0838 3.4969 -0.1919 11.0
1.0947 3.5102 -0.1927 11.0
1.099 3.5026 -0.1924 11.0
1.1099 3.5159 -0.1932 11.0
1.1179 3.5197 -0.1935 12.0
1.1234 3.5158 -0.1934 12.0
1.1289 3.512 -0.1933 12.0
1.1344 3.5081 -0.1932 13.0
1.4797 5.2925 1.2687 17.0
1.4905 5.2955 1.2701 16.0
1.4987 5.2892 1.2692 19.0
1.5095 5.2922 1.2705 18.0
1.5198 5.2933 1.2714 18.0
1.5334 5.3056 1.275 17.0
1.5421 5.301 1.2746 16.0
1.5508 5.2965 1.2741 17.0
1.5639 5.3068 1.2773 15.0
1.5732 5.3041 1.2773 16.0
1.5858 5.3125 1.28 16.0
1.595 5.3098 1.28 16.0
1.6054 5.3107 1.2809 16.0
1.6136 5.3042 1.28 16.0
1.6262 5.3125 1.2827 16.0
1.6384 5.319 1.2849 17.0
1.6476 5.3161 1.2849 17.0
1.6552 5.3077 1.2836 16.0
1.6639 5.3029 1.2831 15.0
1.6802 5.3223 1.2885 17.0
1.6894 5.3194 1.2885 15.0
1.6999 5.3201 1.2894 17.0
1.7116 5.3246 1.2912 17.0
1.7185 5.3141 1.2894 17.0
1.2454 4.4545 -0.0807 1.0
1.2488 4.4369 -0.0805 1.0
1.2587 4.4424 -0.0806 1.0
1.2522 4.3902 -0.0797 1.0
1.2224 4.2573 -0.0773 1.0
1.1932 4.1284 -0.075 1.0
1.0898 3.7461 -0.0681 1.0
1.0969 3.7461 -0.0681 6.0
1.1071 3.7327 -0.068 53.0
1.1165 3.7403 -0.0681 52.0
1.1236 3.7403 -0.0682 58.0
1.1272 3.7288 -0.068 50.0
1.1314 3.7191 -0.0679 50.0
1.1385 3.7191 -0.0679 47.0
1.1461 3.7209 -0.068 47.0
1.1544 3.7246 -0.0681 50.0
1.1615 3.7245 -0.0681 47.0
1.1656 3.7148 -0.068 47.0
1.1745 3.7204 -0.0681 47.0
1.181 3.7184 -0.0681 46.0
1.1887 3.7201 -0.0682 47.0
1.1988 3.7295 -0.0684 46.0
1.2004 3.7121 -0.0681 46.0
1.2708 4.5452 1.2646 16.0
1.285 4.5653 1.2708 16.0
1.294 4.5668 1.2718 15.0
1.3035 4.5701 1.2734 16.0
1.3099 4.5622 1.2718 16.0
1.32 4.5674 1.2739 16.0
1.3291 4.5688 1.2749 18.0
1.3376 4.5683 1.2755 16.0
1.3472 4.5715 1.277 16.0
1.3552 4.5691 1.277 16.0
1.3632 4.5668 1.277 16.0
1.3728 4.5699 1.2786 16.0
1.3847 4.5805 1.2822 14.0
1.3927 4.5781 1.2822 15.0
1.3984 4.5682 1.2801 16.0
1.412 4.5842 1.2853 15.0
1.42 4.5818 1.2853 14.0
1.428 4.5793 1.2853 13.0
1.4383 4.5842 1.2874 14.0
1.4463 4.5816 1.2874 14.0
1.4532 4.5754 1.2863 15.0
1.4635 4.5802 1.2884 14.0
1.4739 4.585 1.2905 14.0
1.4831 4.5861 1.2915 14.0
0.8223 2.5278 -0.7123 12.0
0.8267 2.5264 -0.7123 12.0
0.8307 2.5251 -0.7123 12.0
0.8394 2.5365 -0.7159 12.0
0.8407 2.5258 -0.7133 12.0
0.8402 2.5097 -0.7092 12.0
0.8434 2.5046 -0.7081 12.0
0.8496 2.5086 -0.7097 12.0
0.8558 2.5126 -0.7112 12.0
0.8596 2.5093 -0.7107 12.0
0.859 2.4932 -0.7066 12.0
0.8633 2.4917 -0.7066 13.0
0.8664 2.4865 -0.7055 12.0
0.872 2.4886 -0.7066 13.0
0.8776 2.4907 -0.7076 12.0
0.8755 2.471 -0.7024 12.0
0.8811 2.4731 -0.7035 12.0
0.8848 2.4698 -0.703 12.0
0.8858 2.4591 -0.7004 12.0
0.877 2.4212 -0.69 8.0
0.8475 2.3271 -0.6636 8.0
0.825 2.2531 -0.6429 7.0
0.8135 2.2099 -0.631 6.0
0.814 2.1995 -0.6284 7.0
5.0249 15.4468 0.2835 2.0
5.1069 14.5748 0.2696 2.0
5.0288 14.1146 0.2615 2.0
5.0332 14.0494 0.2605 2.0
5.0448 14.0048 0.2598 2.0
5.0583 13.9659 0.2593 2.0
5.0636 13.9044 0.2583 2.0
5.0596 13.8186 0.2569 2.0
5.0844 13.8116 0.2569 2.0
0.8331 2.5611 -0.6218 6.0
0.8406 2.5689 -0.624 6.0
0.8386 2.549 -0.6195 6.0
0.8406 2.5402 -0.6177 6.0
0.8462 2.5424 -0.6186 6.0
0.8519 2.5446 -0.6195 6.0
0.857 2.545 -0.62 5.0
0.8539 2.5213 -0.6146 6.0
0.8596 2.5235 -0.6155 5.0
0.8614 2.5146 -0.6137 5.0
0.8677 2.5186 -0.615 5.0
0.8728 2.519 -0.6155 5.0
0.8759 2.5138 -0.6146 3.0
0.8764 2.5012 -0.6119 3.0
0.8821 2.5033 -0.6128 2.0
0.8838 2.4944 -0.611 1.0
0.8914 2.5021 -0.6132 1.0
0.8938 2.495 -0.6119 1.0
0.8916 2.4751 -0.6074 1.0
0.8999 2.4845 -0.6101 1.0
0.8935 2.4537 -0.6029 1.0
0.9153 2.4997 -0.6146 1.0
0.9048 2.4579 -0.6047 1.0
0.8996 2.4307 -0.5984 1.0
5.3475 16.4384 0.9059 6.0
5.3675 16.4024 0.9045 6.0
5.3895 16.3826 0.9038 6.0
5.4319 16.4149 0.9061 6.0
5.4694 16.4319 0.9076 7.0
5.4929 16.4072 0.9068 7.0
5.5305 16.4241 0.9082 7.0
5.5694 16.4447 0.9099 7.0
5.6007 16.4425 0.9103 7.0
5.6449 16.478 0.9128 7.0
5.6554 16.4153 0.9099 7.0
5.6749 16.379 0.9084 7.0
5.7193 16.4143 0.911 7.0
5.7479 16.4043 0.911 7.0
5.7818 16.4093 0.9118 7.0
5.8265 16.4444 0.9143 7.0
5.8525 16.4266 0.9139 7.0
5.8839 16.4239 0.9143 7.0
5.9206 16.4362 0.9156 7.0
5.9547 16.4408 0.9164 7.0
5.9889 16.4454 0.9172 7.0
6.0121 16.42 0.9164 7.0
6.0421 16.4132 0.9166 7.0
6.0846 16.4401 0.9187 7.0
0.9329 2.8676 -0.5862 16.0
0.9391 2.8697 -0.5869 16.0
0.9442 2.8701 -0.5873 17.0
0.9486 2.8666 -0.5869 16.0
0.9505 2.8556 -0.585 15.0
0.9524 2.8447 -0.5831 16.0
0.9586 2.8467 -0.5839 17.0
0.9642 2.8469 -0.5843 17.0
0.9698 2.8471 -0.5846 17.0
0.969 2.8287 -0.5812 15.0
0.9746 2.8288 -0.5816 17.0
0.9776 2.8216 -0.5804 17.0
0.9838 2.8235 -0.5812 17.0
0.9887 2.8218 -0.5812 15.0
0.9878 2.8034 -0.5778 17.0
0.994 2.8054 -0.5785 16.0
1.0002 2.8074 -0.5793 16.0
1.0064 2.8093 -0.5801 16.0
1.0087 2.8002 -0.5785 16.0
1.0095 2.7873 -0.5762 16.0
1.0131 2.7819 -0.5755 16.0
1.0179 2.7801 -0.5755 17.0
1.0241 2.782 -0.5762 17.0
1.0276 2.7765 -0.5755 17.0
4.6423 14.2706 1.3129 5.0
4.6771 14.2928 1.3157 5.0
4.712 14.3232 1.3192 5.0
4.7458 14.3415 1.3216 5.0
4.7884 14.3861 1.3265 5.0
4.8148 14.3815 1.3269 5.0
4.8513 14.4071 1.33 5.0
4.8828 14.4174 1.3317 5.0
4.9119 14.4202 1.3328 5.0
5.139 14.6664 1.3596 5.0
5.1699 14.6724 1.361 5.0
5.2048 14.6897 1.3635 5.0
5.2438 14.7181 1.367 6.0
5.2789 14.7352 1.3694 6.0
5.3167 14.7597 1.3725 6.0
5.3384 14.7391 1.3715 6.0
5.3887 14.7972 1.3778 6.0
5.4254 14.8177 1.3805 6.0
5.4747 14.8718 1.3865 6.0
5.5159 14.9033 1.3903 6.0
0.9918 3.0488 -0.5078 30.0
0.9928 3.0339 -0.5056 30.0
1.0025 3.0473 -0.5081 10.0
1.03 3.0944 -0.5165 1.0
1.0442 3.1189 -0.5209 1.0
1.066 3.1657 -0.5291 1.0
1.0715 3.1638 -0.5291 1.0
1.077 3.162 -0.5291 1.0
1.0826 3.1601 -0.5291 1.0
1.0881 3.1582 -0.5291 1.0
1.0991 3.1544 -0.5291 1.0
1.1046 3.1524 -0.5291 1.0
1.1101 3.1505 -0.5291 1.0
1.0984 3.1002 -0.5209 1.0
1.0946 3.0722 -0.5165 1.0
1.1266 3.1447 -0.5291 1.0
1.1321 3.1427 -0.5291 1.0
1.1241 3.1036 -0.5228 1.0
1.1254 3.0905 -0.5209 1.0
1.1281 3.0811 -0.5197 1.0
1.1308 3.0717 -0.5184 1.0
1.143 3.0882 -0.5216 1.0
3.2872 10.105 1.3047 10.0
3.3141 10.1275 1.3084 10.0
3.3281 10.1166 1.3077 10.0
3.3551 10.1391 1.3113 10.0
3.3779 10.1483 1.3133 10.0
3.4031 10.165 1.3162 10.0
3.4247 10.1703 1.3177 10.0
3.4488 10.1831 1.3201 10.0
3.4723 10.194 1.3223 10.0
3.4946 10.201 1.324 10.0
3.5182 10.2118 1.3262 10.0
3.5464 10.2357 1.3301 10.0
3.5636 10.2276 1.3298 10.0
3.5907 10.2476 1.3333 10.0
3.6171 10.2657 1.3364 10.0
3.6437 10.2836 1.3396 10.0
3.6656 10.2885 1.3411 10.0
3.6889 10.297 1.343 10.0
3.7129 10.3074 1.3452 10.0
3.7424 10.3326 1.3493 10.0
3.7645 10.3373 1.3508 10.0
3.7887 10.3475 1.353 7.0
3.8088 10.3464 1.3537 7.0
3.833 10.3565 1.3559 7.0
1.0495 3.2261 -0.4165 1.0
1.0329 3.1564 -0.4078 1.0
1.044 3.1736 -0.4102 1.0
1.0346 3.1265 -0.4044 1.0
1.0564 3.1737 -0.4107 1.0
1.0455 3.1229 -0.4044 1.0
1.07 3.1775 -0.4117 1.0
1.0653 3.1456 -0.4078 1.0
1.0683 3.1362 -0.4068 1.0
1.075 3.1381 -0.4073 1.0
1.0637 3.0874 -0.401 1.0
1.073 3.0968 -0.4024 1.0
1.0797 3.0986 -0.4029 1.0
1.089 3.108 -0.4044 1.0
1.0786 3.0612 -0.3985 1.0
1.0999 3.1042 -0.4044 1.0
1.1053 3.1023 -0.4044 1.0
1.0973 3.0629 -0.3995 1.0
1.104 3.0648 -0.4 1.0
1.108 3.0591 -0.3995 1.0
1.116 3.0646 -0.4005 1.0
1.1159 3.0478 -0.3985 1.0
1.1308 3.0719 -0.4019 1.0
1.1334 3.0625 -0.401 1.0
2.536 7.7957 1.2984 13.0
2.5533 7.8025 1.3003 12.0
2.5729 7.821 1.304 13.0
2.5872 7.8184 1.3044 13.0
2.6052 7.827 1.3065 15.0
2.6207 7.828 1.3075 13.0
2.6413 7.8441 1.3109 13.0
2.6626 7.8619 1.3147 15.0
2.6789 7.8647 1.3159 15.0
2.6913 7.8563 1.3153 13.0
2.7095 7.8646 1.3175 16.0
2.7239 7.8618 1.3178 13.0
2.1923 6.2919 1.0553 4.0
2.2098 6.3068 1.0584 24.0
2.2156 6.288 1.0559 27.0
2.2358 6.3102 1.0603 50.0
2.2335 6.269 1.0541 36.0
2.2458 6.2689 1.0547 37.0
2.2547 6.2594 1.0537 30.0
2.267 6.2591 1.0544 20.0
2.2793 6.2589 1.055 4.0
2.9042 7.9318 1.3378 9.0
2.9242 7.9434 1.3406 13.0
2.9373 7.9364 1.3403 15.0
1.0281 3.1603 -0.2908 1.0
1.0249 3.132 -0.2883 1.0
1.0248 3.1152 -0.2869 1.0
1.0278 3.1059 -0.2862 1.0
1.0307 3.0965 -0.2855 1.0
1.0285 3.072 -0.2834 1.0
1.0313 3.0627 -0.2827 1.0
1.0277 3.0345 -0.2803 1.0
1.0356 3.0402 -0.281 3.0
1.0344 3.0195 -0.2792 4.0
1.0397 3.0177 -0.2792 7.0
1.041 3.0046 -0.2782 16.0
1.0456 3.0009 -0.278 33.0
1.0535 3.0066 -0.2787 43.0
1.062 3.0142 -0.2796 51.0
1.062 2.9973 -0.2782 54.0
1.0685 2.9992 -0.2785 54.0
1.0724 2.9936 -0.2782 34.0
1.0856 2.9973 -0.2789 1.0
1.114 3.059 -0.2848 1.0
1.1207 3.0608 -0.2852 1.0
1.1826 3.1952 -0.2981 1.0
2.0394 6.2692 1.2815 40.0
2.0491 6.2619 1.2807 40.0
2.062 6.268 1.2826 45.0
2.0754 6.2719 1.2841 41.0
2.0901 6.2794 1.2864 43.0
2.1023 6.2795 1.2872 45.0
2.1108 6.2684 1.2857 45.0
2.1223 6.2665 1.2861 42.0
2.1371 6.274 1.2883 42.0
2.1499 6.2758 1.2895 43.0
2.1647 6.2832 1.2918 45.0
2.1718 6.2683 1.2895 43.0
2.1847 6.27 1.2906 42.0
2.1969 6.2699 1.2914 38.0
2.2137 6.2827 1.2948 41.0
2.2234 6.2751 1.2941 37.0
2.2317 6.2639 1.2925 36.0
2.2466 6.271 1.2948 35.0
2.2582 6.269 1.2952 32.0
2.2725 6.2742 1.2971 35.0
2.2841 6.2721 1.2975 27.0
2.3045 6.2939 1.3028 35.0
2.3121 6.2807 1.3009 25.0
2.3244 6.2803 1.3017 25.0
1.1449 3.5194 -0.194 12.0
1.1529 3.5231 -0.1943 15.0
1.154 3.508 -0.1935 16.0
1.1671 3.5268 -0.1947 26.0
1.1751 3.5305 -0.195 43.0
1.1775 3.517 -0.1944 41.0
1.1817 3.5093 -0.1941 37.0
1.1859 3.5016 -0.1937 26.0
1.1862 3.4825 -0.1928 8.0
1.1884 3.4691 -0.1922 7.0
1.1899 3.4538 -0.1914 7.0
1.1907 3.4366 -0.1906 6.0
1.1895 3.4137 -0.1895 5.0
1.1901 3.3966 -0.1886 5.0
1.1914 3.3813 -0.1879 6.0
1.1933 3.3679 -0.1873 6.0
1.1932 3.3489 -0.1863 6.0
1.1983 3.345 -0.1862 6.0
1.196 3.3203 -0.185 7.0
1.1984 3.3088 -0.1844 7.0
1.2049 3.3086 -0.1845 7.0
1.2024 3.284 -0.1833 7.0
1.2013 3.2631 -0.1822 7.0
1.2021 3.2479 -0.1815 8.0
1.7314 5.3223 1.2921 17.0
1.7437 5.3285 1.2944 18.0
1.7557 5.3368 1.2971 16.0
1.7644 5.3319 1.2966 17.0
1.7737 5.3288 1.2966 18.0
1.7855 5.3331 1.2984 18.0
1.7991 5.3429 1.3016 18.0
1.8085 5.3398 1.3016 18.0
1.8178 5.3366 1.3016 19.0
1.8302 5.3426 1.3038 18.0
1.8415 5.345 1.3052 18.0
1.8546 5.3528 1.3079 18.0
1.8659 5.3551 1.3092 17.0
1.8714 5.3408 1.3065 18.0
1.8884 5.3596 1.3119 17.0
1.8952 5.3489 1.3101 17.0
1.9085 5.3566 1.3128 18.0
1.927 5.3789 1.3191 17.0
1.9265 5.3481 1.3124 18.0
1.9405 5.3575 1.3155 17.0
1.9525 5.3615 1.3173 17.0
1.9658 5.369 1.32 17.0
1.9772 5.3711 1.3214 16.0
1.9866 5.3676 1.3214 15.0
1.21 3.7195 -0.0683 50.0
1.2202 3.7288 -0.0685 50.0
1.2254 3.725 -0.0684 46.0
1.2307 3.7191 -0.0684 46.0
1.2372 3.7169 -0.0684 46.0
1.2437 3.7147 -0.0684 45.0
1.2501 3.7126 -0.0684 46.0
1.2617 3.7255 -0.0687 45.0
1.2695 3.7271 -0.0687 46.0
1.2747 3.7211 -0.0687 45.0
1.2799 3.7151 -0.0686 46.0
1.2903 3.7242 -0.0688 45.0
1.2968 3.7219 -0.0688 45.0
1.3047 3.7234 -0.0689 46.0
1.3085 3.7136 -0.0687 45.0
1.3177 3.7189 -0.0689 45.0
1.3268 3.7241 -0.069 43.0
1.336 3.7293 -0.0691 43.0
1.3439 3.7307 -0.0692 45.0
1.3449 3.7133 -0.0689 43.0
1.3542 3.7185 -0.0691 42.0
1.3675 3.7349 -0.0694 43.0
1.374 3.7325 -0.0694 43.0
1.3792 3.7264 -0.0694 45.0
1.4899 4.5799 1.2905 14.0
1.4991 4.5809 1.2915 14.0
1.5075 4.5822 1.2925 14.0
1.5167 4.5833 1.2936 14.0
1.5295 4.5953 1.2977 13.0
1.5376 4.5926 1.2977 15.0
1.5462 4.5917 1.2982 18.0
1.5548 4.5909 1.2988 14.0
1.5628 4.5882 1.2988 14.0
1.5758 4.6 1.3029 14.0
1.5814 4.59 1.3008 14.0
1.5868 4.5799 1.2988 15.0
1.5999 4.5917 1.3029 14.0
1.6105 4.5962 1.305 13.0
1.6223 4.6043 1.3081 16.0
1.6323 4.607 1.3096 16.0
1.6384 4.5986 1.3081 16.0
1.649 4.603 1.3101 15.0
1.659 4.6056 1.3117 16.0
1.671 4.6136 1.3148 16.0
1.6777 4.6071 1.3138 16.0
1.6864 4.6059 1.3143 16.0
1.6972 4.6102 1.3164 16.0
1.7072 4.6127 1.3179 15.0
0.8118 2.1817 -0.6238 8.0
0.8143 2.1767 -0.6227 8.0
0.8106 2.1554 -0.617 8.0
0.813 2.1504 -0.616 8.0
0.8126 2.1381 -0.6129 10.0
0.8163 2.1367 -0.6129 8.0
0.8155 2.1246 -0.6098 8.0
0.8144 2.1105 -0.6062 6.0
0.8237 2.1235 -0.6103 7.0
0.8316 2.1329 -0.6134 7.0
0.8339 2.1278 -0.6124 7.0
0.8305 2.1084 -0.6072 7.0
0.8335 2.1051 -0.6067 8.0
0.84 2.1109 -0.6087 8.0
0.8451 2.113 -0.6098 8.0
0.8474 2.1079 -0.6087 8.0
0.8482 2.0993 -0.6067 7.0
0.8489 2.0906 -0.6046 8.0
0.8511 2.0856 -0.6036 6.0
0.8606 2.0984 -0.6077 8.0
0.8613 2.0897 -0.6056 7.0
0.8642 2.0864 -0.6051 7.0
0.8664 2.0814 -0.6041 7.0
0.8685 2.0763 -0.603 6.0
5.085 13.5212 0.2522 1.0
5.1383 13.5909 0.2536 2.0
5.1802 12.5682 0.2373 1.0
5.2389 12.6478 0.239 1.0
5.2456 12.6017 0.2383 1.0
0.9093 2.4437 -0.602 1.0
0.9395 2.5115 -0.6191 1.0
0.9261 2.4624 -0.6074 1.0
0.9235 2.4426 -0.6029 1.0
0.9526 2.5065 -0.6191 1.0
0.9403 2.4612 -0.6083 1.0
0.961 2.5034 -0.6191 1.0
0.9513 2.4653 -0.6101 1.0
0.9443 2.4346 -0.6029 1.0
0.974 2.4983 -0.6191 1.0
0.9429 2.4059 -0.5966 1.0
1.0185 2.5855 -0.6416 1.0
0.9871 2.4932 -0.6191 1.0
0.9727 2.4444 -0.6074 1.0
0.9423 2.3558 -0.5858 1.0
0.974 2.4229 -0.6029 1.0
0.9768 2.4176 -0.602 1.0
0.9824 2.4195 -0.6029 1.0
0.9764 2.3925 -0.5966 1.0
0.9672 2.3583 -0.5885 1.0
0.9624 2.335 -0.5831 1.0
1.0262 2.4774 -0.6191 1.0
1.0035 2.4108 -0.6029 1.0
1.0077 2.409 -0.6029 1.0
6.13 16.4744 0.9212 7.0
6.1588 16.4636 0.9212 7.0
6.1791 16.4304 0.92 7.0
6.2233 16.4607 0.9223 7.0
6.2378 16.4125 0.9202 7.0
6.2921 16.4687 0.9239 7.0
6.3251 16.4775 0.925 7.0
6.3625 16.4888 0.9262 7.0
6.3855 16.4628 0.9254 7.0
6.4229 16.4739 0.9267 7.0
6.4589 16.4813 0.9277 7.0
6.4936 16.4848 0.9285 7.0
6.5223 16.4735 0.9285 7.0
6.5599 16.4843 0.9298 7.0
6.5887 16.4729 0.9298 7.0
6.6457 16.5318 0.9338 7.0
6.7602 16.4831 0.9337 7.0
6.7783 16.4454 0.9322 7.0
6.8208 16.4668 0.9341 7.0
6.8556 16.4696 0.9349 7.0
6.8936 16.4797 0.9362 7.0
1.0304 2.7692 -0.5743 17.0
1.0332 2.7619 -0.5732 17.0
1.0394 2.7638 -0.574 17.0
1.0442 2.7619 -0.574 16.0
1.0504 2.7638 -0.5747 16.0
1.0496 2.7473 -0.5717 16.0
1.0518 2.7401 -0.5705 15.0
1.0609 2.7493 -0.5728 14.0
1.0728 2.7657 -0.5766 11.0
1.0819 2.7748 -0.5789 11.0
1.0924 2.7875 -0.582 7.0
1.1153 2.8313 -0.5915 6.0
1.1325 2.8604 -0.598 4.0
1.1382 2.8602 -0.5984 4.0
1.1454 2.8637 -0.5995 6.0
1.1497 2.8599 -0.5991 9.0
1.1524 2.8524 -0.598 11.0
1.1596 2.8558 -0.5991 11.0
1.1646 2.8538 -0.5991 12.0
1.1651 2.8409 -0.5969 8.0
1.1663 2.8298 -0.5949 9.0
1.1713 2.8277 -0.5949 11.0
1.1762 2.8257 -0.5949 14.0
1.1804 2.8218 -0.5946 21.0
5.553 14.9235 1.3931 6.0
5.5874 14.9362 1.3952 6.0
5.6429 15.0048 1.4025 6.0
5.6818 15.0284 1.4056 6.0
5.7052 15.0111 1.405 6.0
5.7413 15.0271 1.4074 6.0
5.7977 15.1037 1.4154 6.0
5.8356 15.1233 1.4182 6.0
5.8821 15.1651 1.4231 6.0
5.9245 15.1956 1.4269 6.0
5.9598 15.2075 1.429 6.0
6.0053 15.2453 1.4335 6.0
6.0495 15.2792 1.4377 6.0
6.2217 15.3992 1.4531 6.0
6.2261 15.3329 1.4478 6.0
6.2528 15.322 1.4478 6.0
6.2962 15.3517 1.4517 6.0
6.3275 15.3517 1.4527 6.0
6.3589 15.3517 1.4538 6.0
6.3902 15.3516 1.4548 6.0
6.417 15.3404 1.4548 6.0
1.1387 3.0603 -0.5172 1.0
1.1704 3.1286 -0.5291 1.0
1.138 3.01 -0.5097 1.0
1.1194 2.9452 -0.499 1.0
1.1189 2.9285 -0.4965 1.0
1.1291 2.9415 -0.499 1.0
1.1264 2.9192 -0.4956 3.0
1.1344 2.9246 -0.4968 15.0
1.1395 2.9226 -0.4968 15.0
1.146 2.9243 -0.4975 17.0
1.154 2.9297 -0.4987 15.0
1.1402 2.8799 -0.4906 7.0
1.1445 2.8761 -0.4903 8.0
1.1495 2.874 -0.4903 7.0
1.1553 2.8739 -0.4906 8.0
1.1581 2.8664 -0.4896 8.0
1.1601 2.857 -0.4884 15.0
1.1643 2.8532 -0.4881 18.0
1.1596 2.8274 -0.484 16.0
1.169 2.8363 -0.4859 16.0
1.1732 2.8324 -0.4856 17.0
1.1721 2.8158 -0.4831 15.0
1.1762 2.8119 -0.4828 12.0
3.8615 10.3777 1.3596 10.0
3.8873 10.3914 1.3623 7.0
3.9145 10.4088 1.3654 10.0
3.9347 10.4075 1.3662 10.0
3.9571 10.4117 1.3676 7.0
3.9824 10.4233 1.3701 7.0
4.0101 10.4467 1.374 7.0
4.0326 10.4508 1.3754 7.0
4.0523 10.4475 1.3759 7.0
4.085 10.4774 1.3808 7.0
4.1127 10.4943 1.3839 7.0
4.1397 10.5092 1.3869 7.0
4.1639 10.5168 1.3888 7.0
4.1852 10.5168 1.3898 7.0
4.2138 10.5353 1.3932 8.0
4.2367 10.539 1.3947 8.0
4.264 10.5537 1.3976 8.0
4.2906 10.5665 1.4003 8.0
4.3105 10.5626 1.4008 8.0
4.341 10.5845 1.4047 8.0
4.3716 10.6063 1.4086 8.0
4.3984 10.6188 1.4112 8.0
4.42 10.6184 1.4122 8.0
4.4416 10.618 1.4132 8.0
1.1582 3.1126 -0.4078 1.0
1.1886 3.1775 -0.4165 1.0
1.1872 3.1568 -0.4141 1.0
1.1857 3.1362 -0.4117 1.0
1.1996 3.1564 -0.4146 1.0
1.2009 3.1431 -0.4131 1.0
1.198 3.1209 -0.4105 1.0
1.2034 3.1188 -0.4105 3.0
1.2117 3.1241 -0.4114 5.0
1.2186 3.1256 -0.4119 3.0
1.219 3.1106 -0.4102 2.0
1.2332 3.1306 -0.4131 12.0
1.2291 3.1045 -0.41 12.0
1.2324 3.0968 -0.4092 18.0
1.2311 3.078 -0.407 17.0
1.2321 3.0648 -0.4056 17.0
1.2344 3.0553 -0.4046 16.0
1.2353 3.0421 -0.4031 18.0
1.2368 3.0308 -0.4019 16.0
1.2331 3.0066 -0.399 16.0
1.2353 2.9971 -0.398 16.0
1.239 2.9912 -0.3975 16.0
1.2442 2.9891 -0.3975 16.0
1.2418 2.9686 -0.3951 18.0
2.9519 7.9331 1.3406 13.0
2.9699 7.939 1.3425 12.0
2.9893 7.9486 1.345 13.0
3.0115 7.9656 1.3488 13.0
3.0282 7.9677 1.35 13.0
3.0421 7.9624 1.35 13.0
3.0589 7.9687 1.3519 15.0
3.0785 7.9781 1.3544 13.0
3.1017 7.9966 1.3585 12.0
3.1171 7.9949 1.3591 12.0
3.1332 7.9949 1.36 10.0
2.4934 6.3298 1.0775 7.0
2.4957 6.3034 1.0738 22.0
2.5038 6.2917 1.0725 28.0
2.5155 6.2892 1.0728 38.0
2.5206 6.2701 1.0703 39.0
2.5322 6.2675 1.0706 38.0
2.5432 6.2631 1.0706 37.0
2.5571 6.266 1.0719 30.0
2.571 6.2688 1.0731 19.0
2.5835 6.268 1.0738 6.0
3.3375 8.0574 1.3813 9.0
3.3576 8.0662 1.3838 12.0
3.377 8.0731 1.386 12.0
1.1881 3.1931 -0.2981 1.0
1.1937 3.191 -0.2981 1.0
1.1726 3.1181 -0.2914 1.0
1.1837 3.1309 -0.2928 1.0
1.1934 3.14 -0.2939 1.0
1.1918 3.1193 -0.2921 1.0
1.1895 3.0989 -0.2904 1.0
1.2036 3.1191 -0.2925 1.0
1.2097 3.1188 -0.2927 4.0
1.2159 3.1186 -0.2928 8.0
1.2191 3.1109 -0.2923 9.0
1.2151 3.0846 -0.2901 9.0
1.2139 3.0658 -0.2885 9.0
1.2177 3.06 -0.2881 9.0
1.2164 3.0412 -0.2866 9.0
1.2143 3.0206 -0.2848 10.0
1.2151 3.0074 -0.2838 10.0
1.2143 2.9905 -0.2824 10.0
1.218 2.9847 -0.282 10.0
1.2225 2.9807 -0.2819 10.0
1.2231 2.9676 -0.2808 12.0
1.2237 2.9544 -0.2798 10.0
1.222 2.9357 -0.2782 12.0
1.2217 2.9207 -0.277 12.0
2.3395 6.2873 1.304 21.0
2.3504 6.2832 1.304 18.0
2.3656 6.2901 1.3063 17.0
2.3786 6.2915 1.3074 22.0
2.3931 6.2965 1.3093 17.0
2.4111 6.3107 1.3131 16.0
2.4196 6.3032 1.3124 11.0
2.4341 6.3081 1.3143 10.0
2.4416 6.2947 1.3124 8.0
2.4632 6.3179 1.3181 8.0
2.5122 6.4104 1.3383 20.0
2.5277 6.417 1.3406 19.0
2.5425 6.4217 1.3425 20.0
2.5537 6.4173 1.3425 22.0
2.5708 6.4274 1.3456 22.0
2.5864 6.4338 1.3479 23.0
2.5969 6.4275 1.3475 24.0
2.6088 6.4247 1.3479 27.0
2.6163 6.4111 1.346 28.0
2.6223 6.3938 1.3433 28.0
2.6245 6.3674 1.3387 24.0
2.6258 6.3393 1.3338 12.0
2.6308 6.3202 1.3307 10.0
2.6388 6.3083 1.3292 6.0
1.2001 3.2252 -0.1803 7.0
1.2071 3.2269 -0.1806 7.0
1.2064 3.2079 -0.1796 7.0
1.2057 3.189 -0.1787 6.0
1.2027 3.1645 -0.1774 7.0
1.2061 3.1568 -0.1771 7.0
1.2089 3.1493 -0.1768 7.0
1.2101 3.136 -0.1762 7.0
1.2076 3.1134 -0.175 8.0
1.2116 3.1076 -0.1748 7.0
1.2119 3.0924 -0.1741 7.0
1.2115 3.0755 -0.1732 7.0
1.2176 3.0752 -0.1733 8.0
1.2133 3.0489 -0.172 7.0
1.2112 3.0283 -0.1709 7.0
1.212 3.015 -0.1703 7.0
1.2151 3.0074 -0.17 7.0
1.2173 2.9978 -0.1696 7.0
1.2172 2.9828 -0.1688 7.0
1.2149 2.9622 -0.1678 6.0
1.2155 2.949 -0.1672 6.0
1.2191 2.9431 -0.167 7.0
1.2219 2.9355 -0.1666 7.0
1.2209 2.9186 -0.1658 7.0
1.996 5.3641 1.3214 16.0
2.0074 5.3661 1.3227 17.0
2.0188 5.3681 1.3241 16.0
2.0323 5.3755 1.3268 16.0
2.0417 5.3719 1.3268 15.0
2.0504 5.3665 1.3263 17.0
2.0623 5.3724 1.3286 15.0
2.0745 5.3761 1.3304 16.0
2.0859 5.3779 1.3317 17.0
2.0946 5.3724 1.3313 16.0
2.1054 5.3724 1.3322 16.0
2.1162 5.3723 1.3331 16.0
2.1313 5.3831 1.3367 18.0
2.1429 5.3848 1.338 17.0
2.1479 5.3702 1.3353 17.0
2.1617 5.3773 1.338 17.0
2.174 5.3808 1.3398 17.0
2.1878 5.3878 1.3425 18.0
2.1979 5.3858 1.343 16.0
2.2066 5.3801 1.3425 18.0
2.2211 5.3889 1.3457 16.0
2.2328 5.3904 1.347 17.0
2.2459 5.3955 1.3493 18.0
2.2576 5.397 1.3506 20.0
1.3898 3.7352 -0.0696 42.0
1.3929 3.7234 -0.0694 42.0
1.4057 3.7378 -0.0697 45.0
1.4136 3.7391 -0.0698 43.0
1.4223 3.7422 -0.0699 40.0
1.4238 3.7267 -0.0696 17.0
1.4254 3.7132 -0.0694 10.0
1.4426 3.7387 -0.0699 7.0
1.4427 3.7194 -0.0696 3.0
1.4542 3.7299 -0.0699 1.0
1.46 3.7255 -0.0698 1.0
1.4621 3.7118 -0.0696 1.0
1.476 3.7278 -0.07 1.0
1.4751 3.7067 -0.0696 1.0
1.483 3.7078 -0.0697 1.0
1.482 3.6867 -0.0694 1.0
1.4795 3.6618 -0.0689 1.0
1.4979 3.6889 -0.0695 1.0
1.5119 3.7048 -0.0698 1.0
1.5184 3.7021 -0.0698 1.0
1.537 3.7291 -0.0704 1.0
1.7179 4.617 1.32 16.0
1.7206 4.5995 1.3158 15.0
1.732 4.6055 1.3184 16.0
1.7428 4.6097 1.3205 14.0
1.7556 4.6193 1.3241 15.0
1.7658 4.6216 1.3257 14.0
1.7702 4.6116 1.3236 14.0
1.7748 4.5995 1.321 14.0
1.7898 4.6144 1.3262 15.0
1.8 4.6167 1.3277 13.0
1.8109 4.6208 1.3298 13.0
1.8154 4.6086 1.3272 13.0
1.827 4.6144 1.3298 14.0
1.8365 4.6148 1.3308 13.0
1.8488 4.6224 1.334 13.0
1.8569 4.6191 1.334 13.0
1.8628 4.6105 1.3324 13.0
1.8723 4.6108 1.3334 13.0
1.8825 4.6129 1.335 13.0
1.8949 4.6203 1.3381 13.0
1.9023 4.6152 1.3376 12.0
1.9096 4.6101 1.3371 13.0
1.9199 4.6121 1.3386 12.0
1.9286 4.6106 1.3391 11.0
0.8721 2.0748 -0.603 6.0
0.8788 2.0803 -0.6051 7.0
0.8749 2.061 -0.5999 6.0
0.8784 2.0595 -0.5999 6.0
0.8836 2.0615 -0.601 6.0
0.8902 2.0671 -0.603 6.0
0.8938 2.0655 -0.603 6.0
0.8897 2.0462 -0.5979 6.0
0.8941 2.0464 -0.5984 6.0
0.8969 2.0431 -0.5979 5.0
0.9004 2.0415 -0.5979 6.0
0.9056 2.0435 -0.5989 6.0
0.904 2.0315 -0.5958 6.0
0.9052 2.0246 -0.5942 6.0
0.9159 2.0389 -0.5989 6.0
0.9163 2.0302 -0.5968 6.0
0.9222 2.0339 -0.5984 6.0
0.9217 2.0235 -0.5958 6.0
0.9196 2.0096 -0.5922 6.0
0.9248 2.0115 -0.5932 6.0
0.9279 2.0101 -0.5932 6.0
0.9355 2.0172 -0.5958 6.0
0.9345 2.0049 -0.5927 6.0
0.9363 1.9998 -0.5917 6.0
2.7726 6.5958 0.1249 1.0
2.7873 6.5984 0.125 1.0
2.7972 6.5898 0.125 1.0
2.7914 6.5445 0.1242 1.0
2.7934 6.5175 0.1238 1.0
2.7985 6.4979 0.1235 1.0
2.7987 6.4673 0.123 1.0
2.798 6.4349 0.1225 1.0
2.806 6.4227 0.1223 1.0
2.7979 6.3739 0.1215 1.0
2.8026 6.3543 0.1212 1.0
2.804 6.3275 0.1208 1.0
2.8009 6.2939 0.1202 1.0
2.7849 6.2287 0.1191 6.0
2.7974 6.2275 0.1192 3.0
2.8141 6.2354 0.1194 1.0
2.8299 6.2414 0.1196 3.0
2.8391 6.2328 0.1195 9.0
2.8467 6.2205 0.1194 1.0
2.8634 6.2283 0.1197 1.0
2.869 6.2147 0.1195 1.0
2.8924 6.2369 0.12 15.0
2.9061 6.235 0.1201 3.0
2.922 6.2407 0.1203 1.0
0.9908 2.357 -0.5903 1.0
0.9873 2.3373 -0.5858 1.0
0.996 2.3463 -0.5885 1.0
1.0245 2.4019 -0.6029 1.0
1.0272 2.3966 -0.602 1.0
1.0082 2.3411 -0.5885 1.0
1.0262 2.3715 -0.5966 1.0
1.0071 2.3161 -0.5831 1.0
1.0283 2.3536 -0.593 1.0
1.0245 2.334 -0.5885 1.0
1.0349 2.3465 -0.5921 1.0
1.0406 2.3482 -0.593 1.0
1.0427 2.343 -0.5921 1.0
1.0547 2.359 -0.5966 1.0
1.0397 2.3145 -0.5858 1.0
1.0501 2.3269 -0.5894 1.0
1.0606 2.3392 -0.593 1.0
1.0566 2.3196 -0.5885 1.0
1.0558 2.3072 -0.5858 1.0
1.0647 2.3159 -0.5885 1.0
1.0749 2.3284 -0.5921 1.0
1.0773 2.323 -0.5912 1.0
1.0801 2.3174 -0.5903 1.0
1.085 2.3173 -0.5907 1.0
6.9239 16.4714 0.9364 7.0
6.9527 16.4593 0.9364 7.0
6.9923 16.4728 0.9379 7.0
7.0399 16.5047 0.9404 7.0
7.0545 16.4593 0.9385 7.0
7.1148 16.5204 0.9427 7.0
7.1182 16.4493 0.9393 7.0
7.1708 16.4918 0.9425 7.0
7.2028 16.4866 0.9429 7.0
7.2565 16.5307 0.9461 7.0
7.2837 16.5143 0.9459 7.0
7.3157 16.5089 0.9463 7.0
7.3676 16.5558 0.9497 8.0
7.3933 16.5356 0.9493 7.0
7.4368 16.5555 0.9512 8.0
1.1838 2.8161 -0.5938 20.0
1.1834 2.8014 -0.5911 22.0
1.1859 2.7939 -0.59 20.0
1.1916 2.7936 -0.5904 25.0
1.1949 2.7879 -0.5896 26.0
1.1998 2.7859 -0.5896 30.0
1.1968 2.7657 -0.5858 29.0
1.2017 2.7636 -0.5858 31.0
1.2057 2.7597 -0.5854 33.0
1.2089 2.754 -0.5846 34.0
1.2169 2.7591 -0.5862 38.0
1.2154 2.7426 -0.5831 36.0
1.2205 2.7425 -0.5835 31.0
1.2269 2.744 -0.5843 24.0
1.222 2.7203 -0.5797 30.0
1.2243 2.7128 -0.5785 40.0
1.2274 2.7071 -0.5778 38.0
1.2321 2.705 -0.5778 37.0
1.2369 2.7028 -0.5778 34.0
1.1973 2.6043 -0.5572 14.0
1.1471 2.4848 -0.532 14.0
1.1365 2.4507 -0.5251 17.0
1.1388 2.4432 -0.524 17.0
1.1372 2.4288 -0.5213 17.0
6.4623 15.3733 1.459 6.0
6.4938 15.373 1.46 6.0
6.5284 15.38 1.4618 6.0
6.5771 15.4199 1.4667 6.0
6.6056 15.412 1.467 6.0
6.9957 15.7199 1.5054 7.0
7.1353 15.9587 1.5294 7.0
7.2056 16.0407 1.5385 7.0
7.2369 16.0354 1.5392 7.0
7.283 16.0627 1.543 7.0
7.3209 16.0717 1.5451 7.0
7.3755 16.1169 1.5507 7.0
7.4252 16.151 1.5552 7.0
7.489 16.2226 1.5632 7.0
7.5324 16.242 1.5664 7.0
7.5686 16.2383 1.5674 7.0
7.6172 16.2684 1.5716 7.0
1.1796 2.8062 -0.4821 16.0
1.1868 2.8096 -0.4831 23.0
1.1886 2.8002 -0.4818 26.0
1.1889 2.7873 -0.4799 28.0
1.1922 2.7816 -0.4793 25.0
1.197 2.7795 -0.4793 23.0
1.2019 2.7774 -0.4793 23.0
1.2051 2.7717 -0.4787 25.0
1.206 2.7605 -0.4771 26.0
1.2116 2.7602 -0.4774 31.0
1.2196 2.7653 -0.4787 42.0
1.2285 2.7722 -0.4803 53.0
1.2344 2.7739 -0.4809 48.0
1.236 2.7645 -0.4796 50.0
1.2409 2.7623 -0.4796 50.0
1.2498 2.7692 -0.4812 60.0
1.2546 2.767 -0.4812 38.0
1.1644 2.5563 -0.4449 10.0
1.1302 2.4698 -0.4302 14.0
1.1271 2.4517 -0.4274 15.0
1.1268 2.4409 -0.4258 15.0
1.1244 2.4246 -0.4233 16.0
1.1249 2.4135 -0.4217 18.0
1.1208 2.3937 -0.4186 18.0
4.4686 10.6304 1.4159 8.0
4.4972 10.6463 1.419 8.0
4.5243 10.6586 1.4217 8.0
4.5491 10.6653 1.4237 8.0
4.5724 10.6683 1.4251 8.0
4.6028 10.6876 1.4288 5.0
4.6278 10.6941 1.4307 5.0
4.6575 10.7115 1.4342 2.0
4.6889 10.7325 1.4381 5.0
4.7132 10.737 1.4398 5.0
4.744 10.756 1.4434 5.0
4.7716 10.7677 1.4461 5.0
4.7966 10.7783 1.4485 5.0
4.8243 10.7898 1.4512 8.0
4.848 10.7923 1.4527 8.0
4.8823 10.8182 1.4573 8.0
4.9069 10.8223 1.459 8.0
4.9324 10.8282 1.461 8.0
4.962 10.843 1.4641 8.0
4.9859 10.8452 1.4656 8.0
5.0138 10.8607 1.4688 8.0
5.0402 10.8682 1.471 8.0
5.072 10.8819 1.4741 8.0
5.1028 10.8982 1.4775 8.0
1.24 2.9499 -0.3929 19.0
1.239 2.9331 -0.391 18.0
1.2402 2.9218 -0.3897 18.0
1.2438 2.916 -0.3893 18.0
1.2465 2.9084 -0.3885 20.0
1.2398 2.8788 -0.3849 16.0
1.2401 2.8657 -0.3834 18.0
1.2467 2.8672 -0.3839 18.0
1.2469 2.8541 -0.3824 16.0
1.2455 2.8374 -0.3805 14.0
1.2481 2.8298 -0.3797 15.0
1.2442 2.8076 -0.3771 14.0
1.2502 2.8093 -0.3776 13.0
1.251 2.798 -0.3763 11.0
1.2494 2.7814 -0.3744 12.0
1.2469 2.7629 -0.3722 11.0
1.2501 2.7571 -0.3717 10.0
1.2533 2.7513 -0.3712 10.0
1.2548 2.7419 -0.3702 10.0
1.2512 2.7217 -0.3678 14.0
1.2422 2.6909 -0.3639 29.0
1.2461 2.6869 -0.3637 30.0
1.2537 2.6899 -0.3644 33.0
1.2576 2.6859 -0.3641 10.0
3.3926 8.0708 1.3866 12.0
3.4052 8.0612 1.386 12.0
3.4247 8.068 1.3882 12.0
3.4504 8.0893 1.3929 10.0
3.4699 8.0959 1.3951 10.0
3.4856 8.0935 1.3957 10.0
3.4974 8.082 1.3948 10.0
3.5249 8.1066 1.4001 10.0
3.5374 8.0969 1.3995 9.0
3.5658 8.1232 1.4051 12.0
3.5744 8.1043 1.4029 10.0
3.5958 8.1143 1.4057 10.0
3.6158 8.1249 1.4085 11.0
3.6348 8.1294 1.4104 11.0
3.6603 8.1483 1.4148 13.0
3.6777 8.1491 1.416 11.0
3.6903 8.1391 1.4154 11.0
3.7094 8.1434 1.4173 11.0
3.7302 8.1513 1.4198 11.0
3.7535 8.1645 1.4232 9.0
3.7705 8.1676 1.4248 9.0
3.7889 8.1699 1.4264 9.0
3.8062 8.1662 1.427 9.0
3.8289 8.1775 1.4301 9.0
1.2268 2.9185 -0.277 12.0
1.2257 2.9017 -0.2756 12.0
1.2253 2.8867 -0.2744 12.0
1.2249 2.8718 -0.2731 13.0
1.2283 2.8659 -0.2728 13.0
1.2302 2.8565 -0.2721 13.0
1.2312 2.8452 -0.2712 13.0
1.2267 2.8211 -0.2691 13.0
1.2292 2.8135 -0.2686 13.0
1.2245 2.7894 -0.2665 11.0
1.2261 2.78 -0.2658 11.0
1.2318 2.7797 -0.266 11.0
1.2224 2.7468 -0.263 13.0
1.2304 2.7519 -0.2637 13.0
1.2303 2.7389 -0.2627 13.0
1.2367 2.7404 -0.263 13.0
1.2325 2.7182 -0.2611 14.0
1.2273 2.6943 -0.259 32.0
1.232 2.6922 -0.259 48.0
1.2325 2.681 -0.2582 53.0
1.2359 2.6772 -0.258 30.0
1.2339 2.6606 -0.2566 13.0
1.2407 2.6618 -0.2569 13.0
1.2394 2.647 -0.2557 13.0
2.662 6.3327 1.3353 5.0
2.6815 6.3479 1.3395 5.0
2.6987 6.3577 1.3425 4.0
2.7113 6.3566 1.3433 5.0
2.7208 6.3482 1.3425 4.0
2.7405 6.3633 1.3467 4.0
2.7562 6.3693 1.349 4.0
2.7721 6.3753 1.3513 4.0
2.7792 6.3615 1.3494 4.0
2.7927 6.362 1.3505 4.0
2.8078 6.3661 1.3525 4.0
2.8252 6.3755 1.3555 4.0
2.8424 6.3872 1.3589 4.0
2.852 6.3787 1.3582 4.0
2.8623 6.3719 1.3578 2.0
2.8831 6.3884 1.3624 4.0
2.9007 6.3976 1.3654 4.0
2.9184 6.4068 1.3685 4.0
2.9239 6.3892 1.3658 4.0
2.944 6.4038 1.37 4.0
2.9607 6.4134 1.3731 4.0
2.9702 6.4046 1.3723 4.0
2.9858 6.406 1.3738 4.0
2.9995 6.4062 1.375 4.0
1.2205 2.9036 -0.1651 8.0
1.2272 2.9051 -0.1653 8.0
1.2268 2.8901 -0.1645 8.0
1.2287 2.8806 -0.1641 8.0
1.2274 2.8638 -0.1633 10.0
1.2206 2.8341 -0.1617 8.0
1.2255 2.832 -0.1617 8.0
1.2312 2.8317 -0.1618 8.0
1.2346 2.8259 -0.1616 8.0
1.2299 2.8017 -0.1604 7.0
1.2283 2.785 -0.1595 8.0
1.2348 2.7865 -0.1597 10.0
1.2343 2.7736 -0.1591 8.0
1.2326 2.7568 -0.1583 8.0
1.2235 2.7237 -0.1565 7.0
1.2357 2.738 -0.1574 31.0
1.2347 2.7231 -0.1567 29.0
1.2336 2.7082 -0.156 29.0
1.2425 2.7151 -0.1565 23.0
1.2472 2.7129 -0.1565 9.0
1.2364 2.6783 -0.1546 7.0
1.2386 2.6707 -0.1543 6.0
1.2429 2.6665 -0.1542 6.0
1.2407 2.6499 -0.1533 7.0
2.2663 5.3912 1.3502 21.0
2.2795 5.3962 1.3524 20.0
2.2904 5.3958 1.3533 19.0
2.3059 5.4062 1.3569 19.0
2.3169 5.4057 1.3578 20.0
2.3263 5.4017 1.3578 19.0
2.3373 5.4012 1.3587 19.0
2.349 5.4024 1.3601 18.0
2.3647 5.4126 1.3637 18.0
2.3773 5.4156 1.3655 18.0
2.3812 5.399 1.3623 19.0
2.397 5.4091 1.3659 19.0
2.4063 5.4071 1.3664 18.0
2.4236 5.4207 1.3709 17.0
2.4331 5.4164 1.3709 18.0
2.4425 5.4122 1.3709 17.0
2.4504 5.4043 1.37 18.0
2.4647 5.4107 1.3727 15.0
2.4782 5.4153 1.3749 17.0
2.49 5.4162 1.3763 16.0
2.4928 5.3999 1.3731 16.0
2.508 5.4079 1.3763 17.0
2.52 5.4067 1.3772 17.0
2.5377 5.4199 1.3816 17.0
1.3213 3.1127 -0.059 1.0
1.3267 3.1104 -0.059 1.0
1.3321 3.108 -0.059 1.0
1.3302 3.0304 -0.0578 1.0
1.3129 2.9768 -0.0568 1.0
