# .PCD v0.7 - Point Cloud Data file format
VERSION 0.7
FIELDS x y z intensity
SIZE 4 4 4 4
TYPE F F F F
COUNT 1 1 1 1
WIDTH 1805
HEIGHT 1
VIEWPOINT 0 0 0 1 0 0 0
POINTS 1805
DATA ascii
10.0518 12.2372 -0.8299 4.0
10.068 12.2135 -0.8295 7.0
10.1421 12.1729 -0.8304 7.0
10.153 12.1429 -0.8295 7.0
10.2195 12.0975 -0.8299 2.0
10.2174 12.0522 -0.8281 4.0
10.1122 11.7981 -0.8143 38.0
10.3961 11.9593 -0.8305 11.0
10.4025 11.9246 -0.8293 14.0
10.4489 11.852 -0.8281 21.0
10.4696 11.8337 -0.8281 26.0
10.5261 11.7728 -0.8276 26.0
10.52 11.7247 -0.8255 33.0
10.5705 11.6576 -0.8247 23.0
10.5666 11.6125 -0.8228 21.0
10.5935 11.5203 -0.8202 23.0
10.5323 11.4137 -0.8139 26.0
10.56 11.3281 -0.8116 30.0
10.577 11.3068 -0.8114 30.0
10.6133 11.2233 -0.8095 30.0
10.6164 11.1873 -0.8083 30.0
10.6527 11.1085 -0.8066 30.0
10.6721 11.0899 -0.8066 30.0
12.6673 15.4215 4.6074 4.0
12.667 15.3663 4.5975 4.0
12.0127 14.367 4.3236 14.0
12.1064 14.2804 4.3222 7.0
13.2132 15.2 4.6497 17.0
12.2507 14.0433 4.3024 17.0
12.1952 13.8327 4.2574 7.0
11.677 13.1984 4.0685 6.0
11.7459 13.1371 4.0685 3.0
12.5705 14.0101 4.3456 14.0
12.4343 13.7131 4.2736 7.0
11.9887 13.1754 4.1126 6.0
12.1129 13.1727 4.1315 6.0
11.1394 12.0717 3.7922 16.0
11.2043 12.0194 3.7936 13.0
12.4594 13.3191 4.2106 3.0
13.3132 14.0783 4.4734 3.0
13.044 13.7455 4.3748 18.0
13.1198 13.6813 4.3762 18.0
11.5979 12.052 3.8615 6.0
11.1213 13.5393 -0.3058 1.0
11.122 13.4921 -0.3052 1.0
11.1234 13.3507 -0.3033 1.0
11.157 13.3436 -0.3036 1.0
11.2218 13.2839 -0.3035 1.0
11.2605 13.2826 -0.304 1.0
11.3191 13.2063 -0.3036 1.0
11.3031 13.141 -0.3026 1.0
11.1487 12.8251 -0.2966 1.0
11.0843 12.7062 -0.2943 1.0
11.1216 12.6149 -0.2935 1.0
11.0826 12.5266 -0.2919 1.0
11.1321 12.4505 -0.2915 3.0
11.1511 12.4281 -0.2915 1.0
11.2321 12.3873 -0.2919 1.0
11.2591 12.3736 -0.292 1.0
11.0612 12.0289 -0.2852 1.0
11.0415 11.9655 -0.2842 1.0
11.0964 11.9036 -0.2841 1.0
11.1035 11.8696 -0.2837 1.0
11.1429 11.7832 -0.2831 1.0
11.1909 11.7928 -0.2838 3.0
11.2816 11.7643 -0.2845 7.0
11.3257 11.7691 -0.2851 1.0
11.7802 14.3414 4.9729 24.0
12.34 14.8109 5.1655 6.0
12.3559 14.7775 5.1614 25.0
12.4929 14.7886 5.1873 6.0
12.47 14.3451 5.093 6.0
12.4646 14.2884 5.0806 12.0
12.7308 14.4403 5.1583 12.0
12.4863 13.9651 5.0195 6.0
12.5442 13.9807 5.033 12.0
12.8041 14.1209 5.1075 12.0
11.8484 13.0212 4.7172 5.0
12.2851 13.36 4.8632 5.0
12.3163 13.347 4.8663 11.0
12.4351 13.3396 4.8865 11.0
12.4372 13.2953 4.8782 5.0
13.2018 13.9605 5.1484 6.0
11.806 12.4409 4.5956 22.0
11.8923 12.4012 4.6039 27.0
11.2951 11.7373 4.3647 10.0
2.0458 2.1038 -0.7863 8.0
2.0468 2.0974 -0.7853 9.0
2.0618 2.0908 -0.7868 8.0
2.0641 2.0858 -0.7863 8.0
2.0692 2.0699 -0.7842 8.0
2.0728 2.0663 -0.7842 8.0
2.0894 2.0605 -0.7863 8.0
2.0972 2.0609 -0.7878 8.0
2.1038 2.0458 -0.7863 8.0
2.0976 2.0327 -0.7827 8.0
2.1166 2.0297 -0.7858 9.0
2.1243 2.0301 -0.7873 9.0
2.1307 2.0149 -0.7858 8.0
2.1399 2.0165 -0.7878 8.0
2.1363 1.9921 -0.7827 8.0
2.1454 1.9936 -0.7847 8.0
2.1572 1.9837 -0.7853 8.0
2.1678 1.9864 -0.7878 8.0
2.1753 1.9725 -0.7868 8.0
2.1716 1.9622 -0.7842 9.0
2.1847 1.9534 -0.7853 8.0
2.1924 1.9534 -0.7868 8.0
2.2113 1.9496 -0.7899 8.0
2.2017 1.9342 -0.7853 8.0
12.6321 12.9899 0.3163 1.0
12.6352 12.9478 0.3158 1.0
12.6663 12.8444 0.3149 3.0
12.6128 12.7455 0.313 6.0
12.6715 12.6759 0.3129 13.0
13.8379 13.7945 0.3411 9.0
13.9009 13.7082 0.3408 15.0
14.7578 14.5024 0.3612 6.0
15.212 14.793 0.3704 4.0
12.8453 12.448 0.3122 1.0
12.9219 12.3916 0.3125 6.0
12.9146 12.3414 0.3118 1.0
12.9558 12.2517 0.3112 16.0
12.9567 12.2098 0.3108 6.0
13.0103 12.1323 0.3105 13.0
13.0314 12.1095 0.3105 8.0
13.1049 12.0506 0.3108 8.0
13.0906 11.9953 0.3099 6.0
12.6406 11.4618 0.2978 6.0
12.6191 11.4022 0.2969 6.0
12.8575 11.4959 0.3011 6.0
13.209 11.7688 0.3088 4.0
13.2629 11.6929 0.3086 8.0
12.9063 11.3384 0.2999 3.0
2.3898 2.4575 -0.7914 6.0
2.3859 2.4449 -0.7887 7.0
2.4041 2.4379 -0.7905 8.0
2.4056 2.431 -0.7896 7.0
2.4262 2.427 -0.7923 7.0
2.4221 2.4145 -0.7896 6.0
2.4268 2.3932 -0.7869 7.0
2.438 2.3958 -0.7891 7.0
2.4463 2.3789 -0.7878 7.0
2.4588 2.3828 -0.7905 6.0
2.4741 2.3726 -0.7914 8.0
2.4641 2.3548 -0.7869 6.0
2.4821 2.3472 -0.7887 6.0
2.4862 2.3429 -0.7887 6.0
2.507 2.3378 -0.7914 6.0
2.511 2.3334 -0.7914 7.0
2.506 2.3044 -0.786 6.0
2.5129 2.3026 -0.7869 6.0
2.5394 2.3025 -0.7914 6.0
2.5463 2.3007 -0.7923 6.0
2.5525 2.2822 -0.7905 6.0
2.5535 2.2751 -0.7896 8.0
2.5625 2.2591 -0.7887 6.0
2.5752 2.2624 -0.7914 6.0
12.6111 12.9683 0.948 21.0
13.6004 13.9369 1.0206 35.0
12.6902 12.8686 0.9472 5.0
12.6367 12.7698 0.9415 15.0
12.7012 12.7056 0.9415 15.0
14.3732 14.1739 1.0579 6.0
12.848 12.6257 0.944 5.0
12.8051 12.4524 0.9361 5.0
12.6805 12.2883 0.9254 5.0
12.7879 12.2632 0.9285 10.0
12.7833 12.216 0.9267 10.0
12.8123 12.116 0.9241 5.0
13.2695 12.5045 0.9555 5.0
12.9462 12.0725 0.9277 5.0
12.8195 11.9126 0.9171 25.0
12.9302 11.8899 0.9206 20.0
12.9745 11.8889 0.9223 5.0
12.8413 11.6437 0.9084 4.0
12.8408 11.6026 0.907 4.0
13.2587 11.8547 0.9321 10.0
13.0289 11.6083 0.9145 10.0
13.0146 11.4739 0.9093 39.0
13.0976 11.5065 0.9137 5.0
2.8018 2.8811 -0.7812 9.0
2.8164 2.886 -0.7838 8.0
2.8273 2.8671 -0.7827 9.0
2.8254 2.8552 -0.7808 9.0
2.837 2.838 -0.78 9.0
2.8462 2.8372 -0.7812 9.0
2.8629 2.8232 -0.7816 9.0
2.8706 2.8209 -0.7823 9.0
2.8727 2.7935 -0.7789 9.0
2.8804 2.7913 -0.7796 9.0
2.8921 2.7734 -0.7789 9.0
2.9012 2.7724 -0.78 9.0
2.9157 2.7572 -0.78 9.0
2.9148 2.7467 -0.7785 9.0
2.9305 2.7328 -0.7789 9.0
2.9339 2.7263 -0.7785 9.0
2.951 2.7136 -0.7793 9.0
2.9572 2.7097 -0.7796 9.0
2.9626 2.6863 -0.7774 9.0
2.9687 2.6825 -0.7777 8.0
2.9871 2.6708 -0.7789 9.0
2.9947 2.6682 -0.7796 9.0
3.0116 2.6551 -0.7804 9.0
3.0074 2.642 -0.7781 9.0
12.5582 12.9138 1.576 4.0
13.584 13.92 1.7016 8.0
13.4776 13.6671 1.6793 8.0
13.8532 13.999 1.7231 17.0
13.4027 13.4074 1.6586 10.0
13.3866 13.3446 1.6537 18.0
13.0089 12.8285 1.5984 8.0
12.9659 12.7415 1.5904 18.0
12.7696 12.4179 1.5583 7.0
12.8499 12.4524 1.5655 1.0
14.0682 13.4909 1.7053 4.0
12.5591 12.0018 1.5198 3.0
12.5147 11.8345 1.5069 16.0
12.6165 11.8892 1.5167 5.0
13.5092 12.5975 1.616 6.0
13.6742 12.7068 1.6331 2.0
13.8182 12.7065 1.6424 6.0
13.6906 12.5451 1.6246 4.0
14.2313 12.9042 1.6807 4.0
14.1503 12.7858 1.6685 4.0
13.167 11.7727 1.5453 11.0
12.6594 11.2791 1.4834 9.0
12.8468 11.326 1.4984 3.0
13.7722 12.0991 1.6038 8.0
3.4443 3.5418 -0.7825 8.0
3.4477 3.533 -0.7819 8.0
3.4717 3.5205 -0.7831 8.0
3.4806 3.5173 -0.7837 8.0
3.4914 3.4926 -0.7822 8.0
3.4989 3.4879 -0.7825 8.0
3.5107 3.462 -0.7809 8.0
3.5266 3.4656 -0.7831 8.0
3.5475 3.4498 -0.7837 8.0
3.5478 3.4381 -0.7825 8.0
3.5601 3.414 -0.7812 8.0
3.576 3.4173 -0.7834 8.0
3.5867 3.3918 -0.7819 8.0
3.6013 3.3936 -0.7837 8.0
3.6175 3.3734 -0.7834 9.0
3.6118 3.3563 -0.7809 9.0
3.6294 3.3374 -0.7809 8.0
3.6425 3.3377 -0.7825 8.0
3.6643 3.3226 -0.7834 9.0
3.6539 3.3016 -0.78 8.0
3.6815 3.2916 -0.7822 8.0
3.6828 3.2813 -0.7812 9.0
3.7044 3.2659 -0.7822 9.0
3.719 3.2672 -0.784 9.0
12.5924 12.9491 2.2178 3.0
12.5402 12.8504 2.2046 6.0
12.5794 12.7563 2.1997 3.0
12.8809 13.0165 2.2485 6.0
13.0028 13.0073 2.2582 3.0
12.5812 12.5417 2.1812 14.0
12.6432 12.4679 2.1802 2.0
12.8617 12.6392 2.2141 12.0
12.5791 12.2326 2.1544 14.0
12.6432 12.2521 2.1617 5.0
13.0052 12.4715 2.2124 3.0
12.915 12.3418 2.1934 15.0
14.2371 13.4634 2.4059 9.0
14.7807 13.9286 2.4937 3.0
12.8586 11.9909 2.1588 2.0
14.2435 13.2359 2.3874 3.0
14.377 13.2203 2.3981 3.0
14.4293 13.222 2.403 3.0
13.5601 12.2955 2.2475 3.0
13.499 12.1973 2.2339 6.0
13.5124 12.0815 2.2256 3.0
13.5098 12.0368 2.2217 3.0
16.6222 14.6544 2.7209 4.0
14.9237 13.1108 2.4391 16.0
4.4798 4.6067 -0.789 13.0
4.4837 4.5946 -0.7883 12.0
4.5021 4.5654 -0.7873 11.0
4.5073 4.5547 -0.7868 11.0
4.5373 4.5389 -0.788 13.0
4.5438 4.5295 -0.7878 12.0
4.5682 4.5049 -0.7878 12.0
4.5648 4.4858 -0.7858 12.0
4.5896 4.4632 -0.7861 13.0
4.5988 4.4566 -0.7863 12.0
4.6278 4.4379 -0.7873 12.0
4.6298 4.4243 -0.7863 11.0
4.6471 4.3946 -0.7853 13.0
4.6461 4.3783 -0.7839 12.0
4.6806 4.3647 -0.7858 12.0
4.6911 4.3593 -0.7863 13.0
4.7124 4.3333 -0.7861 13.0
4.7156 4.3211 -0.7853 12.0
4.7338 4.2923 -0.7846 13.0
4.7457 4.288 -0.7853 12.0
4.774 4.2684 -0.7863 13.0
4.7695 4.2495 -0.7844 11.0
4.7873 4.2205 -0.7836 13.0
4.7976 4.2148 -0.7841 13.0
12.0956 12.4382 2.7479 30.0
12.2111 12.5132 2.7692 22.0
12.2016 12.3732 2.7523 7.0
12.1454 12.2732 2.7348 37.0
12.1375 12.1417 2.7191 15.0
12.1111 12.0731 2.7085 29.0
12.1537 11.9852 2.7035 36.0
12.2423 12.0304 2.7185 36.0
12.6336 12.2857 2.7911 15.0
12.848 12.4506 2.8337 32.0
12.5166 12.003 2.7467 30.0
12.5976 12.0385 2.7598 15.0
12.4853 11.8068 2.7216 15.0
12.48 11.7606 2.716 29.0
12.657 11.8029 2.741 15.0
12.7644 11.8614 2.7598 38.0
12.8467 11.8131 2.7642 30.0
12.7508 11.6839 2.7392 37.0
12.8293 11.6329 2.7429 30.0
12.6855 11.4622 2.7079 36.0
12.545 11.2166 2.6653 36.0
12.597 11.2236 2.6722 36.0
12.7179 11.2123 2.6854 14.0
12.6543 11.1171 2.6678 7.0
6.3478 6.5276 -0.7966 9.0
6.3564 6.5137 -0.7963 9.0
6.4017 6.4917 -0.7976 9.0
6.4102 6.4777 -0.7973 9.0
6.4372 6.4395 -0.7966 9.0
6.4527 6.4325 -0.7971 7.0
6.4917 6.4017 -0.7976 9.0
6.5057 6.3931 -0.798 9.0
6.5205 6.3409 -0.7957 12.0
6.5315 6.3295 -0.7957 9.0
6.566 6.2966 -0.7959 9.0
6.5828 6.2906 -0.7966 9.0
6.6272 6.267 -0.798 9.0
6.6265 6.2445 -0.7966 9.0
6.6533 6.2043 -0.7959 9.0
6.6568 6.1859 -0.795 9.0
6.695 6.1564 -0.7957 10.0
6.716 6.1541 -0.797 9.0
6.7304 6.1028 -0.7949 9.0
6.7411 6.091 -0.7949 9.0
6.7833 6.0649 -0.7961 9.0
6.7924 6.0518 -0.7959 9.0
6.8269 6.0188 -0.7963 9.0
6.8299 6.0003 -0.7954 7.0
11.4137 11.737 3.1823 4.0
11.5 11.7845 3.2006 2.0
11.5836 11.7465 3.2067 9.0
11.6552 11.7779 3.2209 11.0
11.7452 11.7493 3.2293 15.0
11.7907 11.7537 3.2361 11.0
11.8974 11.7325 3.248 4.0
11.9879 11.7805 3.267 24.0
12.8967 12.5415 3.4968 5.0
12.6634 12.2717 3.4277 12.0
12.1805 11.6807 3.2804 11.0
12.2406 11.6974 3.2911 19.0
12.4301 11.7546 3.3254 19.0
12.4649 11.7463 3.3292 19.0
12.2046 11.381 3.2438 13.0
12.2201 11.3556 3.2426 11.0
12.3979 11.4005 3.2739 4.0
12.8926 11.8138 3.3991 2.0
13.0211 11.8068 3.4166 2.0
12.6047 11.3892 3.3021 2.0
12.31 11.0064 3.2098 2.0
13.0284 11.6079 3.3918 12.0
13.0551 11.5096 3.383 10.0
13.0575 11.4713 3.3785 10.0
10.6771 10.9795 -0.8026 35.0
10.7311 10.9966 -0.8052 28.0
10.8222 10.9743 -0.8078 33.0
10.8961 11.0108 -0.8118 30.0
10.9856 10.9894 -0.8143 11.0
11.2438 11.2085 -0.832 2.0
11.1521 10.9975 -0.8208 11.0
11.0687 10.8772 -0.8133 11.0
11.0425 10.7383 -0.8072 21.0
11.0512 10.7093 -0.8065 21.0
11.0984 10.643 -0.8059 19.0
11.1026 10.6098 -0.8048 14.0
11.1536 10.5474 -0.8045 11.0
11.1865 10.5416 -0.8056 11.0
11.246 10.487 -0.8059 19.0
11.0828 10.2988 -0.7929 4.0
11.0278 10.1406 -0.7851 6.0
11.0146 10.093 -0.7829 9.0
11.051 10.0204 -0.7818 4.0
11.0596 9.9931 -0.7812 4.0
11.1087 9.9324 -0.781 4.0
11.1171 9.905 -0.7803 2.0
11.1868 9.8625 -0.7816 2.0
11.1905 9.8311 -0.7806 29.0
11.6459 11.9757 3.8566 26.0
11.7008 11.9902 3.8678 16.0
12.1246 12.2951 3.9866 6.0
12.1187 12.2462 3.9776 20.0
12.1998 12.204 3.9839 16.0
12.0209 11.9832 3.9186 29.0
12.0232 11.8564 3.8984 13.0
12.2829 12.0704 3.9758 3.0
12.3473 12.0073 3.9762 13.0
13.5844 13.1642 4.3672 3.0
14.3479 13.7592 4.5895 16.0
14.4734 13.8311 4.6218 4.0
14.5895 13.7966 4.6358 17.0
12.4082 11.6929 3.9362 16.0
13.7605 12.8319 4.3438 14.0
12.1869 11.3247 3.8408 16.0
12.147 11.1698 3.8098 16.0
11.8835 10.8892 3.7211 6.0
11.9158 10.8046 3.7135 12.0
12.2455 11.0646 3.8102 16.0
12.2117 10.9185 3.7819 13.0
12.094 10.7754 3.7396 12.0
12.0128 10.5907 3.6973 15.0
12.0445 10.5813 3.7013 15.0
11.4262 11.7498 -0.2861 1.0
11.5025 11.7871 -0.2875 3.0
11.7143 11.8791 -0.2912 10.0
11.6732 11.7961 -0.2897 10.0
11.7073 11.7114 -0.289 10.0
11.6852 11.6486 -0.288 10.0
11.694 11.5318 -0.2867 7.0
11.0309 10.84 -0.27 1.0
11.0703 10.7654 -0.2695 1.0
11.0345 10.6932 -0.2682 1.0
11.099 10.6435 -0.2684 1.0
11.0973 10.6048 -0.2679 1.0
11.1556 10.5493 -0.268 1.0
11.1652 10.5216 -0.2678 1.0
11.2085 10.4521 -0.2675 1.0
11.1535 10.3644 -0.2658 1.0
11.0898 10.1976 -0.263 1.0
11.0427 10.1188 -0.2614 1.0
11.057 10.0259 -0.2605 1.0
11.0894 10.02 -0.2609 1.0
11.1357 9.9565 -0.2607 1.0
11.1143 9.9024 -0.2598 1.0
11.175 9.852 -0.26 1.0
11.1921 9.8325 -0.26 1.0
11.3645 11.6863 4.3678 21.0
11.5886 11.8753 4.446 21.0
11.4756 11.637 4.3792 10.0
11.8737 11.9987 4.5231 5.0
11.6447 11.6488 4.4134 10.0
11.6814 11.6448 4.4196 15.0
11.8158 11.652 4.4465 10.0
11.2326 11.0382 4.2198 10.0
11.3346 11.0224 4.2364 15.0
11.4037 11.051 4.255 10.0
11.4447 10.9751 4.2488 25.0
11.4918 10.9818 4.2591 10.0
11.5435 10.9161 4.2571 25.0
11.6216 10.9516 4.2788 25.0
11.789 10.9934 4.3192 5.0
11.5619 10.744 4.2291 10.0
11.7204 10.7774 4.2664 20.0
11.7577 10.7739 4.2731 20.0
11.9241 10.8121 4.313 15.0
11.9372 10.7861 4.3109 25.0
11.946 10.681 4.2938 20.0
11.8882 10.592 4.2664 20.0
12.0073 10.5858 4.2891 10.0
11.9691 10.5151 4.269 20.0
2.21 1.9218 -0.7847 9.0
2.2148 1.9192 -0.7853 11.0
2.2339 1.9147 -0.7884 10.0
2.2373 1.9108 -0.7884 8.0
2.2363 1.8911 -0.7847 8.0
2.2396 1.8872 -0.7847 8.0
2.2479 1.8742 -0.7842 8.0
2.2616 1.8789 -0.7878 10.0
2.2729 1.8683 -0.7884 10.0
2.2687 1.8582 -0.7858 9.0
2.273 1.8407 -0.7837 8.0
2.2822 1.8415 -0.7858 11.0
2.2949 1.832 -0.7868 9.0
2.3011 1.8304 -0.7878 9.0
2.3137 1.8207 -0.7889 9.0
2.3047 1.8071 -0.7847 9.0
2.3135 1.7958 -0.7847 8.0
2.3227 1.7965 -0.7868 9.0
2.3352 1.7867 -0.7878 9.0
2.3352 1.7802 -0.7868 9.0
2.3359 1.7602 -0.7837 8.0
2.3482 1.7631 -0.7868 9.0
2.359 1.7519 -0.7873 10.0
2.3605 1.7466 -0.7868 9.0
13.1596 11.4435 0.3044 6.0
13.0783 11.3328 0.3021 7.0
13.185 11.3009 0.3031 7.0
12.6254 10.7831 0.2898 5.0
12.9085 10.9162 0.2951 7.0
13.1523 11.0831 0.3002 6.0
12.8707 10.7311 0.2925 6.0
12.1434 10.0888 0.2756 1.0
13.5184 11.1121 0.3055 10.0
13.5162 11.0707 0.305 7.0
13.2235 10.7081 0.297 6.0
13.2203 10.6675 0.2965 6.0
12.6259 10.0791 0.282 5.0
12.5871 10.0122 0.2807 5.0
11.8536 9.3279 0.2633 1.0
13.3239 10.4473 0.2955 12.0
13.9751 10.848 0.3088 1.0
11.7763 9.1084 0.2599 1.0
11.7699 9.0053 0.2587 1.0
11.7792 8.9799 0.2585 1.0
11.7621 8.8634 0.2571 1.0
11.7392 8.814 0.2562 3.0
11.7723 8.7429 0.256 5.0
11.7458 8.6914 0.255 5.0
2.5896 2.2519 -0.7923 6.0
2.5876 2.2422 -0.7905 6.0
2.5953 2.2244 -0.7891 7.0
2.6006 2.2211 -0.7896 7.0
2.6085 2.2059 -0.7887 6.0
2.6138 2.2026 -0.7891 6.0
2.6313 2.1939 -0.7909 8.0
2.6186 2.1756 -0.786 6.0
2.633 2.1643 -0.7869 8.0
2.6428 2.1646 -0.7887 6.0
2.6564 2.1511 -0.7891 8.0
2.6525 2.1403 -0.7869 6.0
2.6546 2.1191 -0.7842 6.0
2.6643 2.1193 -0.786 7.0
2.6785 2.1078 -0.7869 6.0
2.6883 2.1079 -0.7887 6.0
2.6955 2.0923 -0.7878 7.0
2.6868 2.0781 -0.7842 7.0
2.7023 2.0675 -0.7855 6.0
2.7121 2.0675 -0.7873 6.0
2.7391 2.0641 -0.7918 8.0
2.7272 2.0476 -0.7873 6.0
2.7378 2.0333 -0.7873 8.0
2.7304 2.0204 -0.7842 7.0
12.803 11.1334 0.8892 4.0
12.9281 11.2026 0.8965 23.0
12.94 11.0909 0.8932 4.0
12.8986 11.0164 0.889 9.0
13.3884 11.3221 0.9189 5.0
13.3348 11.2369 0.9139 15.0
13.3996 11.1721 0.9143 15.0
13.5512 11.2584 0.9233 15.0
13.1687 10.8246 0.8934 4.0
13.2988 10.8927 0.9009 4.0
13.9058 11.2607 0.9378 15.0
13.2167 10.6645 0.89 14.0
12.8727 10.2762 0.8632 13.0
12.9094 10.2686 0.8645 4.0
12.7527 10.0354 0.8505 4.0
12.6853 9.9465 0.8448 13.0
13.3648 10.3743 0.8867 4.0
13.3355 10.3143 0.8835 4.0
12.9991 9.9458 0.8578 4.0
13.1563 10.0296 0.867 9.0
13.2982 10.0209 0.8726 13.0
13.2534 9.9509 0.8686 23.0
13.2524 9.8421 0.8651 4.0
12.8714 9.5243 0.8392 39.0
3.0222 2.6281 -0.7785 8.0
3.0238 2.6202 -0.7777 9.0
3.0379 2.6038 -0.7777 9.0
3.038 2.5947 -0.7766 9.0
3.0461 2.576 -0.7754 9.0
3.0476 2.5682 -0.7747 10.0
3.0791 2.5673 -0.7793 10.0
3.0851 2.5631 -0.7796 9.0
3.0955 2.5444 -0.7789 9.0
3.0953 2.5353 -0.7777 9.0
3.1049 2.5143 -0.7766 9.0
3.1154 2.5138 -0.7781 9.0
3.1254 2.495 -0.7774 9.0
3.1298 2.4895 -0.7774 9.0
3.1304 2.4634 -0.7743 9.0
3.1347 2.4579 -0.7743 9.0
3.156 2.4498 -0.7766 9.0
3.1603 2.4443 -0.7766 9.0
3.1637 2.4206 -0.7743 9.0
3.1648 2.4126 -0.7735 9.0
3.1813 2.3973 -0.7743 9.0
3.1918 2.3965 -0.7758 9.0
3.2011 2.3774 -0.7751 9.0
3.2037 2.3706 -0.7747 9.0
12.7294 11.0305 1.4736 3.0
12.9856 11.13 1.4963 1.0
12.5232 10.6958 1.4409 17.0
12.5631 10.6242 1.4395 3.0
12.9702 10.9296 1.4839 7.0
13.4649 11.2265 1.5338 13.0
13.8048 11.4691 1.5702 10.0
13.6461 11.217 1.5454 15.0
13.7966 11.3005 1.5603 7.0
13.2495 10.7292 1.4916 7.0
13.4403 10.8449 1.5109 9.0
13.2291 10.5606 1.481 3.0
13.3691 10.6343 1.4945 3.0
13.4027 10.5469 1.4921 15.0
13.4164 10.5198 1.4916 7.0
13.562 10.5274 1.502 7.0
13.2258 10.2294 1.4628 8.0
13.0497 9.9845 1.4375 15.0
13.0339 9.9363 1.4339 3.0
12.5036 9.4221 1.3697 3.0
13.3613 10.0319 1.4618 19.0
14.1206 10.4869 1.5388 15.0
14.3791 10.64 1.565 9.0
3.7295 3.2432 -0.7828 8.0
3.7232 3.2263 -0.7803 8.0
3.7391 3.2048 -0.78 8.0
3.7492 3.2021 -0.7809 8.0
3.7708 3.1889 -0.7822 8.0
3.7673 3.1746 -0.7803 8.0
3.7824 3.1536 -0.78 8.0
3.7864 3.1457 -0.7797 8.0
3.8058 3.1284 -0.7803 8.0
3.8189 3.128 -0.7819 8.0
3.8256 3.0979 -0.7797 8.0
3.8279 3.0888 -0.779 8.0
3.8441 3.0687 -0.779 8.0
3.8556 3.0669 -0.7803 8.0
3.8809 3.054 -0.7822 9.0
3.8785 3.0411 -0.7806 9.0
3.8808 3.0124 -0.7781 8.0
3.8892 3.0081 -0.7787 8.0
3.9111 2.9925 -0.78 8.0
3.9226 2.9904 -0.7812 8.0
3.9267 2.959 -0.7787 8.0
3.9366 2.9557 -0.7797 8.0
3.952 2.935 -0.7797 8.0
3.9587 2.9293 -0.78 8.0
13.1145 11.4043 2.1339 2.0
15.0396 13.0323 2.4435 3.0
15.9509 13.6716 2.5795 3.0
16.4427 14.0434 2.655 4.0
15.3228 12.9579 2.464 10.0
13.4054 11.2964 2.1525 2.0
13.4125 11.1828 2.1442 11.0
16.6141 13.8031 2.6521 4.0
16.6631 13.697 2.6485 17.0
26.3819 21.6087 4.1872 9.0
16.6443 13.4783 2.6297 8.0
16.6755 13.4554 2.6309 20.0
12.1536 9.7021 1.9094 10.0
14.5614 11.5827 2.2846 3.0
14.6687 11.5431 2.2919 9.0
14.8263 11.6253 2.3133 3.0
14.9346 11.5928 2.3214 12.0
15.2767 11.8157 2.3713 3.0
15.3447 11.7404 2.3723 3.0
26.6116 20.2873 4.1087 9.0
14.3872 10.8415 2.2119 3.0
15.33 11.5101 2.3538 3.0
18.5551 13.7802 2.8378 5.0
14.1461 10.4676 2.1607 2.0
4.8264 4.197 -0.7853 13.0
4.8352 4.1898 -0.7856 13.0
4.8502 4.1572 -0.7844 12.0
4.8484 4.141 -0.7829 12.0
4.8686 4.1172 -0.7829 12.0
4.8788 4.1113 -0.7834 12.0
4.9125 4.0958 -0.7853 12.0
4.9105 4.0796 -0.7839 12.0
4.9195 4.0438 -0.7819 11.0
4.9235 4.0327 -0.7814 12.0
4.9552 4.0126 -0.7829 13.0
4.9714 4.0114 -0.7844 12.0
4.9862 3.9804 -0.7834 13.0
4.9838 3.9643 -0.7819 13.0
5.0045 3.9381 -0.7819 11.0
5.0176 3.9343 -0.7829 13.0
5.0399 3.9122 -0.7834 12.0
5.0436 3.9009 -0.7829 13.0
5.0545 3.8672 -0.7814 13.0
5.0644 3.8608 -0.7819 13.0
5.089 3.8349 -0.7824 12.0
5.1005 3.8295 -0.7831 13.0
5.1157 3.7992 -0.7824 11.0
5.1127 3.7832 -0.7809 12.0
12.5942 10.9518 2.6434 21.0
12.6073 10.9246 2.6422 28.0
12.6617 10.8524 2.6412 42.0
12.6821 10.8316 2.6416 35.0
12.75 10.7822 2.6447 7.0
12.7205 10.7192 2.6347 28.0
12.7703 10.6474 2.6334 21.0
12.7646 10.6049 2.6284 7.0
12.7742 10.5003 2.619 14.0
13.6635 11.1914 2.7974 7.0
13.7166 11.1075 2.7955 7.0
13.7544 11.0984 2.7992 7.0
13.7321 10.9622 2.783 15.0
13.7326 10.9234 2.7792 7.0
13.4916 10.6168 2.7191 30.0
13.5816 10.6493 2.7335 7.0
14.679 11.3944 2.9432 8.0
17.6395 13.6432 3.532 10.0
13.7693 10.497 2.7423 7.0
14.342 10.8075 2.8443 8.0
13.729 10.308 2.7191 15.0
13.7162 10.1865 2.706 7.0
13.7625 10.1837 2.7116 14.0
6.8587 5.9643 -0.7952 9.0
6.8661 5.9497 -0.7949 9.0
6.9073 5.9203 -0.7959 9.0
6.9282 5.9172 -0.7971 7.0
6.9464 5.8743 -0.7959 9.0
6.9384 5.8468 -0.7938 9.0
6.9781 5.818 -0.7949 9.0
6.9913 5.8084 -0.7952 9.0
7.0308 5.7793 -0.7963 9.0
7.0316 5.7594 -0.7952 9.0
7.0606 5.7176 -0.7949 9.0
7.0675 5.7027 -0.7945 9.0
7.0957 5.6644 -0.7943 7.0
7.1149 5.6595 -0.7954 9.0
7.1335 5.6135 -0.7942 9.0
7.1401 5.5986 -0.7938 9.0
7.1737 5.5685 -0.7945 9.0
7.174 5.5487 -0.7935 9.0
7.2171 5.5219 -0.795 9.0
7.2268 5.5093 -0.795 10.0
7.2447 5.4593 -0.7936 12.0
7.2526 5.4454 -0.7935 9.0
7.2874 5.4121 -0.7942 9.0
7.3001 5.4018 -0.7945 9.0
12.3747 10.7609 3.1877 13.0
12.3741 10.7226 3.1827 20.0
12.6511 10.8433 3.2388 4.0
12.1505 10.3775 3.106 4.0
13.0345 11.0228 3.3182 9.0
13.0763 11.019 3.3239 11.0
13.0946 10.9177 3.314 16.0
13.0547 10.8459 3.2991 23.0
13.0431 10.7213 3.2819 11.0
12.7064 10.4075 3.1926 11.0
12.7612 10.3339 3.1919 11.0
12.7502 10.2881 3.1846 4.0
12.7855 10.2065 3.18 20.0
12.7664 10.1549 3.1709 4.0
12.8071 10.0782 3.1678 9.0
12.8061 10.0413 3.1632 4.0
12.8271 9.9569 3.1564 4.0
13.336 10.2035 3.264 9.0
15.1556 11.5538 3.7044 11.0
13.7068 10.3288 3.3361 11.0
12.472 9.3642 3.0316 22.0
15.2586 11.332 3.6944 11.0
15.13 11.1956 3.6586 11.0
11.2507 9.7835 -0.7814 45.0
11.2919 9.7848 -0.7831 13.0
11.2173 9.6144 -0.7743 2.0
11.0761 9.4599 -0.7634 6.0
11.1832 9.4572 -0.7676 2.0
11.1997 9.4377 -0.7676 2.0
11.0618 9.2229 -0.7548 2.0
11.0594 9.1882 -0.7535 4.0
11.2277 9.2291 -0.7617 2.0
11.1758 9.1538 -0.7571 2.0
11.292 9.1441 -0.7615 2.0
11.3359 9.1469 -0.7634 2.0
11.4461 9.1373 -0.7676 2.0
11.5183 9.162 -0.7713 2.0
11.6885 9.198 -0.7795 27.0
11.6244 9.1147 -0.7742 29.0
11.5 8.9267 -0.763 31.0
11.4713 8.8724 -0.76 40.0
11.1608 8.4103 -0.7324 2.0
12.2435 10.6468 3.7459 25.0
12.3474 10.6995 3.772 21.0
12.4066 10.6338 3.7724 6.0
12.8312 10.9589 3.8957 22.0
12.9769 10.9741 3.9236 6.0
13.0288 10.979 3.9335 3.0
12.9873 10.8283 3.9038 13.0
15.7042 13.0472 4.7136 18.0
13.2252 10.871 3.9524 19.0
13.0722 10.7071 3.9011 6.0
13.1106 10.6168 3.8948 6.0
13.1049 10.5743 3.8876 6.0
14.3328 11.4417 4.234 3.0
13.0289 10.3637 3.8435 6.0
14.3357 11.2811 4.2115 3.0
14.1223 11.0733 4.1431 3.0
12.2305 9.4938 3.5745 6.0
12.247 9.4724 3.5745 6.0
14.977 11.4591 4.3537 10.0
14.1818 10.8115 4.1171 3.0
12.1005 9.1184 3.498 11.0
14.9822 11.249 4.3254 18.0
15.0472 11.175 4.3272 18.0
15.0714 11.1522 4.3285 14.0
11.2448 9.7784 -0.2601 1.0
11.0835 9.6042 -0.256 1.0
11.026 9.4504 -0.2535 1.0
11.0151 9.4078 -0.2529 1.0
11.0304 9.328 -0.2522 3.0
11.0405 9.3036 -0.252 4.0
11.083 9.2405 -0.2519 4.0
11.0898 9.2135 -0.2517 6.0
11.1719 9.1832 -0.2524 3.0
11.191 9.1663 -0.2525 1.0
11.2514 9.1112 -0.2527 1.0
11.317 9.1317 -0.2538 1.0
11.4616 9.1497 -0.256 1.0
11.6278 9.2492 -0.2593 4.0
11.6729 9.1857 -0.2593 9.0
11.6606 9.1431 -0.2586 9.0
11.6783 9.0651 -0.2581 9.0
11.1009 8.586 -0.245 1.0
11.0759 8.4743 -0.2434 1.0
11.027 8.4064 -0.242 1.0
11.0674 8.3399 -0.2419 1.0
11.066 8.3086 -0.2415 1.0
11.1318 8.2672 -0.242 1.0
11.1462 8.2477 -0.242 1.0
12.0309 10.462 4.2721 20.0
12.3748 10.7231 4.3875 5.0
12.2126 10.4674 4.3099 10.0
12.222 10.4386 4.3067 10.0
12.7243 10.7604 4.4651 10.0
13.0562 11.0021 4.5749 11.0
12.8703 10.7307 4.49 5.0
12.8623 10.686 4.4807 10.0
12.915 10.6161 4.4796 10.0
12.7243 10.4222 4.4072 10.0
13.0015 10.5284 4.4827 10.0
12.7523 10.2898 4.3906 21.0
12.809 10.2253 4.3916 21.0
12.8162 10.1945 4.388 21.0
12.8376 10.1022 4.3771 10.0
13.1136 10.2824 4.4651 5.0
12.9867 10.0808 4.4051 10.0
13.0654 10.1054 4.4258 10.0
13.0736 10.0028 4.4108 10.0
13.4844 10.2798 4.5433 11.0
13.5014 10.1741 4.5299 11.0
14.0908 10.5797 4.7214 5.0
14.1646 10.5196 4.7276 11.0
13.7357 10.1639 4.5785 5.0
2.3658 1.7328 -0.7858 9.0
2.3642 1.7253 -0.7842 9.0
2.3754 1.7132 -0.7847 9.0
2.3846 1.7135 -0.7868 9.0
2.3999 1.7055 -0.7889 8.0
2.3934 1.6946 -0.7858 8.0
2.3927 1.6754 -0.7827 9.0
2.4036 1.6767 -0.7853 9.0
2.4202 1.6696 -0.7878 9.0
2.4184 1.6621 -0.7863 8.0
2.4284 1.6509 -0.7868 9.0
2.4216 1.6402 -0.7837 8.0
2.4382 1.6329 -0.7863 9.0
2.4427 1.6297 -0.7868 9.0
2.4544 1.619 -0.7878 9.0
2.4492 1.6094 -0.7853 8.0
2.4524 1.5938 -0.7837 8.0
2.4584 1.5916 -0.7847 9.0
2.4719 1.5814 -0.7863 10.0
2.473 1.5761 -0.7858 8.0
2.4731 1.558 -0.7832 8.0
2.4741 1.5526 -0.7827 8.0
2.4883 1.5446 -0.7847 8.0
2.491 1.5402 -0.7847 8.0
11.7526 8.6079 0.2543 5.0
11.7256 8.5567 0.2534 5.0
11.7489 8.4736 0.2529 6.0
11.7312 8.4297 0.2522 6.0
11.754 8.3531 0.2517 6.0
11.7424 8.3141 0.2511 6.0
11.7432 8.2227 0.2502 6.0
11.7247 8.1793 0.2495 6.0
11.7477 8.1042 0.2491 6.0
11.7354 8.0655 0.2486 6.0
11.7364 7.979 0.2477 6.0
11.7205 7.9384 0.2471 7.0
11.727 7.8535 0.2464 7.0
11.7141 7.8153 0.2458 6.0
11.7348 7.7406 0.2454 7.0
11.7249 7.7048 0.2449 8.0
11.7235 7.6192 0.2441 6.0
11.6999 7.5748 0.2433 6.0
11.7205 7.4984 0.2429 6.0
11.7167 7.4672 0.2425 6.0
11.7285 7.3887 0.242 6.0
11.7109 7.3491 0.2413 6.0
11.7127 7.2707 0.2406 7.0
11.7016 7.2355 0.2401 7.0
2.7497 2.0139 -0.7869 8.0
2.7564 2.0114 -0.7878 8.0
2.7628 1.9926 -0.7864 6.0
2.7679 1.9889 -0.7869 7.0
2.7687 1.9676 -0.7842 8.0
2.7753 1.965 -0.7851 7.0
2.7904 1.9538 -0.7864 7.0
2.7954 1.9501 -0.7869 6.0
2.7991 1.931 -0.7851 6.0
2.7993 1.9239 -0.7842 6.0
2.8219 1.9185 -0.7878 8.0
2.8204 1.9103 -0.7864 7.0
2.8287 1.8944 -0.786 8.0
2.8223 1.8829 -0.7833 6.0
2.8289 1.866 -0.7824 7.0
2.8354 1.8632 -0.7833 7.0
2.8562 1.8563 -0.7864 7.0
2.8578 1.8502 -0.786 6.0
2.8612 1.8305 -0.7842 9.0
2.8578 1.8213 -0.7824 7.0
2.8789 1.8136 -0.7855 7.0
2.8804 1.8076 -0.7851 6.0
2.8892 1.7935 -0.7851 7.0
2.8823 1.7823 -0.7824 9.0
13.1788 9.6525 0.8561 18.0
14.5541 10.6208 0.9442 15.0
13.6445 9.8407 0.8817 4.0
19.0692 13.7026 1.2306 7.0
12.7067 9.0302 0.817 4.0
12.8952 9.1303 0.8281 4.0
12.7269 8.9115 0.8142 17.0
12.7949 8.9258 0.8176 17.0
13.4004 9.2443 0.8532 22.0
13.298 9.1394 0.8456 4.0
12.9939 8.834 0.8235 17.0
13.2144 8.9502 0.8364 13.0
13.4104 8.9809 0.8459 8.0
13.7617 9.1814 0.867 9.0
13.6945 9.0333 0.8598 22.0
13.2796 8.7264 0.8328 21.0
13.2918 8.6384 0.8308 4.0
13.0386 8.4415 0.814 12.0
13.1951 8.4419 0.8209 12.0
13.7926 8.7902 0.8572 18.0
13.4464 8.4709 0.8329 12.0
13.4747 8.4559 0.8337 12.0
14.0249 8.706 0.8651 18.0
13.8481 8.5628 0.8533 22.0
3.2137 2.3538 -0.7743 9.0
3.2146 2.3458 -0.7735 9.0
3.2308 2.3301 -0.7743 9.0
3.2365 2.3256 -0.7747 9.0
3.2486 2.3087 -0.7747 9.0
3.2478 2.2996 -0.7735 9.0
3.2582 2.2814 -0.7732 9.0
3.259 2.2735 -0.7724 9.0
3.2838 2.2653 -0.7754 8.0
3.278 2.2529 -0.7732 9.0
3.2861 2.2341 -0.7724 9.0
3.2916 2.2294 -0.7728 9.0
3.3082 2.2155 -0.7739 9.0
3.3137 2.2108 -0.7743 9.0
3.3252 2.1934 -0.7743 9.0
3.3208 2.1822 -0.7724 9.0
3.3367 2.1686 -0.7735 9.0
3.3405 2.1627 -0.7735 9.0
3.3555 2.1467 -0.7743 9.0
3.3625 2.143 -0.7751 9.0
3.3588 2.1159 -0.7716 9.0
3.3674 2.1132 -0.7728 9.0
3.3777 2.0967 -0.7728 9.0
3.3864 2.0939 -0.7739 9.0
12.92 9.463 1.4011 15.0
12.9269 9.4333 1.4001 8.0
14.0394 10.1255 1.5144 9.0
13.8904 9.9813 1.4965 16.0
14.1617 10.0642 1.52 18.0
14.0394 9.9405 1.505 20.0
14.2006 9.9434 1.5167 9.0
14.2294 9.9266 1.5179 15.0
13.1037 9.0396 1.3927 3.0
14.4494 9.9308 1.5339 16.0
13.9327 9.4722 1.474 15.0
13.1475 8.9049 1.3893 1.0
13.9025 9.3104 1.4639 22.0
13.2254 8.7238 1.3861 3.0
13.2039 8.6767 1.3823 3.0
13.8675 9.0125 1.447 15.0
13.634 8.827 1.421 19.0
13.7235 8.7799 1.4253 19.0
14.1253 9.0022 1.4654 7.0
13.9345 8.7784 1.4409 14.0
13.7557 8.6323 1.4208 7.0
13.9467 8.6574 1.4362 15.0
13.8483 8.5629 1.4245 19.0
3.9793 2.9146 -0.7812 8.0
3.9748 2.9006 -0.7794 8.0
3.9862 2.8749 -0.7784 8.0
3.9896 2.8668 -0.7781 8.0
4.011 2.8504 -0.7794 8.0
4.024 2.8492 -0.7809 8.0
4.0405 2.8292 -0.7812 8.0
4.0292 2.8108 -0.7781 8.0
4.0488 2.793 -0.779 8.0
4.0569 2.7882 -0.7797 9.0
4.0726 2.7688 -0.78 8.0
4.0774 2.7616 -0.78 8.0
4.0852 2.7359 -0.7787 8.0
4.0884 2.7276 -0.7784 8.0
4.1075 2.7094 -0.7794 9.0
4.1156 2.7044 -0.78 8.0
4.1292 2.6836 -0.78 8.0
4.1239 2.6699 -0.7781 8.0
4.1366 2.6465 -0.7778 8.0
4.1512 2.6457 -0.7797 9.0
4.1701 2.627 -0.7806 8.0
4.1679 2.6156 -0.7794 8.0
4.1706 2.5889 -0.7775 8.0
4.1768 2.5827 -0.7778 8.0
18.4827 13.5372 2.813 4.0
12.8683 9.3906 1.956 5.0
12.9688 9.3534 1.9633 5.0
13.1206 9.4281 1.9838 2.0
14.1309 10.0423 2.1286 8.0
17.1132 12.1168 2.5746 3.0
14.0885 9.8648 2.1118 11.0
14.1301 9.8573 2.1154 2.0
14.2076 9.8012 2.1193 8.0
18.2656 12.5536 2.7213 13.0
17.9743 12.2199 2.6687 12.0
18.367 12.4401 2.7238 9.0
17.1157 11.4623 2.5293 3.0
18.8514 12.5771 2.7825 19.0
18.8988 12.4662 2.7798 19.0
18.879 12.4059 2.7737 19.0
14.7621 9.594 2.1617 2.0
13.6157 8.8151 1.9916 2.0
14.0512 8.9895 2.0481 8.0
14.8436 9.46 2.1612 8.0
14.258 8.9822 2.0691 2.0
14.6907 9.219 2.1295 8.0
14.7389 9.1492 2.13 2.0
14.613 9.0358 2.1096 13.0
5.1311 3.7582 -0.7809 12.0
5.1489 3.7574 -0.7826 13.0
5.1634 3.724 -0.7817 13.0
5.1683 3.7138 -0.7814 11.0
5.1779 3.6798 -0.78 13.0
5.1908 3.6753 -0.7809 12.0
5.2149 3.6515 -0.7817 13.0
5.2164 3.639 -0.7809 12.0
5.2386 3.6139 -0.7814 11.0
5.2351 3.598 -0.78 12.0
5.2532 3.5714 -0.78 13.0
5.266 3.5667 -0.7809 12.0
5.2879 3.5413 -0.7814 12.0
5.2875 3.5277 -0.7805 12.0
5.3026 3.4977 -0.78 12.0
5.3087 3.4885 -0.78 10.0
5.3229 3.4594 -0.7795 10.0
5.339 3.4566 -0.7809 12.0
5.3442 3.4191 -0.779 11.0
5.3502 3.4098 -0.779 10.0
5.3713 3.3838 -0.7795 11.0
5.3739 3.3723 -0.779 12.0
5.4004 3.3523 -0.7805 13.0
5.4062 3.3429 -0.7805 15.0
13.8089 10.114 2.711 7.0
15.1446 11.0517 2.9694 8.0
12.79 9.2245 2.4976 6.0
12.8895 9.2621 2.5139 6.0
15.3145 10.8834 2.9757 8.0
15.2754 10.8156 2.9644 17.0
15.4839 10.842 2.9938 17.0
15.7167 10.9641 3.0351 8.0
15.556 10.7314 2.9932 17.0
15.6789 10.7758 3.0132 8.0
14.378 9.7383 2.7504 7.0
17.2814 11.5733 3.2942 38.0
17.318 11.554 3.2973 9.0
25.1382 16.5819 4.7697 12.0
15.6748 10.3003 2.9707 8.0
18.7942 12.2144 3.5501 10.0
18.7757 12.1558 3.5426 20.0
14.5015 9.2777 2.7267 7.0
15.7005 10.0061 2.9488 8.0
18.9048 11.9096 3.5389 20.0
18.9624 11.8997 3.5457 20.0
17.2849 10.7297 3.2222 9.0
15.2875 9.4528 2.8468 24.0
7.3119 5.3554 -0.7929 9.0
7.3164 5.3391 -0.7924 9.0
7.3461 5.2982 -0.7924 9.0
7.3554 5.2854 -0.7924 9.0
7.3927 5.2537 -0.7935 9.0
7.3856 5.2293 -0.7917 9.0
7.4063 5.186 -0.791 9.0
7.4186 5.1753 -0.7914 9.0
7.4489 5.1387 -0.7917 9.0
7.4497 5.12 -0.7909 10.0
7.4705 5.0789 -0.7903 9.0
7.4728 5.0614 -0.7896 9.0
7.4926 5.0177 -0.7889 9.0
7.5179 5.0157 -0.7907 9.0
7.5507 4.9807 -0.7914 9.0
7.5527 4.9631 -0.7907 9.0
7.5711 4.9205 -0.79 9.0
7.5696 4.9007 -0.7889 9.0
7.5826 4.8511 -0.7875 9.0
7.6078 4.8486 -0.7893 9.0
7.6281 4.8055 -0.7888 9.0
7.6246 4.7848 -0.7875 9.0
7.6547 4.7517 -0.7882 9.0
7.6477 4.7289 -0.7867 12.0
15.194 11.1285 3.6609 5.0
14.0018 10.2178 3.3693 4.0
14.0905 10.1624 3.3769 4.0
13.9504 10.0243 3.3392 11.0
12.6408 8.9833 3.0144 8.0
12.602 8.9227 3.0014 20.0
13.3529 9.3498 3.1686 2.0
14.1389 9.8634 3.351 19.0
14.0627 9.7012 3.3208 11.0
14.1087 9.6966 3.3277 11.0
16.9907 11.5512 3.9936 6.0
15.4829 10.4867 3.6349 11.0
13.0048 8.6764 3.0388 8.0
13.227 8.7249 3.08 4.0
13.5753 8.9207 3.1575 10.0
13.6318 8.8593 3.1602 2.0
15.2458 9.8705 3.5303 5.0
15.9175 10.1836 3.6731 5.0
15.0677 9.6029 3.4731 7.0
15.1011 9.5134 3.4693 2.0
16.0989 10.1027 3.6944 11.0
17.4324 10.8212 3.9883 3.0
11.1854 8.1625 -0.7257 2.0
11.1209 7.5606 -0.7048 2.0
11.1341 7.5412 -0.7048 2.0
11.9555 7.7403 -0.7464 14.0
12.1066 7.7455 -0.7532 11.0
12.0342 7.6696 -0.7479 14.0
11.8968 7.4947 -0.7369 19.0
12.1517 7.6257 -0.7519 17.0
12.0395 7.4736 -0.7426 17.0
12.0407 7.4452 -0.7419 19.0
14.3082 10.4797 4.0946 13.0
14.3013 10.4363 4.0874 6.0
14.4099 10.3927 4.1018 16.0
14.4407 10.3767 4.1054 6.0
14.803 10.5199 4.1926 14.0
14.869 10.5279 4.2061 14.0
13.1568 9.2125 3.7081 15.0
16.8761 11.7729 4.7505 9.0
12.3963 8.5516 3.4768 14.0
15.4867 10.6437 4.3384 3.0
17.0843 11.6148 4.7694 4.0
17.0884 11.5741 4.7649 14.0
17.1569 11.4899 4.7672 23.0
17.2888 11.5345 4.7982 19.0
15.4896 10.2174 4.284 14.0
17.4535 11.4692 4.8216 9.0
17.5506 11.4062 4.8324 10.0
15.6271 10.1174 4.2979 14.0
15.7122 10.0137 4.3015 3.0
15.6886 9.8835 4.2808 7.0
13.6081 8.4472 3.6977 9.0
11.1864 8.1932 -0.242 1.0
11.2006 8.1736 -0.242 1.0
11.2591 8.1203 -0.2423 1.0
11.2797 8.1053 -0.2424 1.0
11.1395 7.9164 -0.2385 1.0
11.0896 7.765 -0.2363 1.0
11.0769 7.7274 -0.2357 1.0
11.0613 7.6307 -0.2346 1.0
11.0746 7.6113 -0.2346 1.0
11.1361 7.5709 -0.235 1.0
11.6548 7.5745 -0.2426 8.0
11.668 7.5541 -0.2426 9.0
11.6716 7.4672 -0.2419 11.0
11.6543 7.4275 -0.2412 11.0
11.6626 7.3471 -0.2406 9.0
11.6686 7.3225 -0.2405 9.0
11.6771 7.2485 -0.2399 9.0
11.1131 6.8716 -0.2281 1.0
13.8475 10.1423 4.5992 11.0
13.9245 10.1614 4.6189 11.0
13.6865 9.871 4.5216 16.0
13.7021 9.846 4.5211 22.0
13.7582 9.7774 4.5226 16.0
13.668 9.6775 4.4874 10.0
14.4211 10.0978 4.7172 11.0
13.111 9.1464 4.2835 5.0
14.6726 10.1219 4.7762 5.0
13.7477 9.4485 4.4698 5.0
13.8017 9.3832 4.4719 10.0
15.0081 10.1651 4.857 5.0
15.0708 10.0928 4.8601 5.0
12.5026 8.2471 4.0132 9.0
13.2741 8.3624 4.2037 5.0
2.5009 1.5278 -0.7853 8.0
2.5036 1.5234 -0.7853 8.0
2.5082 1.5083 -0.7842 10.0
2.5141 1.5059 -0.7853 8.0
2.5201 1.4921 -0.7847 8.0
2.526 1.4897 -0.7858 9.0
2.5323 1.475 -0.7853 9.0
2.5249 1.4648 -0.7822 8.0
2.5407 1.4568 -0.7847 8.0
2.5398 1.4505 -0.7837 8.0
2.5541 1.4409 -0.7858 9.0
2.555 1.4355 -0.7853 11.0
2.5576 1.4189 -0.7837 9.0
2.5567 1.4125 -0.7827 9.0
2.5675 1.401 -0.7837 8.0
2.575 1.3993 -0.7853 8.0
2.5752 1.3826 -0.7832 8.0
2.5708 1.3744 -0.7811 8.0
2.5814 1.3627 -0.7822 9.0
2.5855 1.3591 -0.7827 8.0
2.596 1.3474 -0.7837 8.0
2.5983 1.3428 -0.7837 8.0
2.5913 1.3226 -0.7796 9.0
2.6005 1.3216 -0.7816 8.0
11.7201 7.1596 0.2397 7.0
11.7087 7.1246 0.2392 7.0
11.7184 7.0467 0.2387 7.0
11.6929 7.0036 0.2379 7.0
11.711 6.9341 0.2376 9.0
11.699 6.8995 0.2371 9.0
11.7137 6.823 0.2366 9.0
11.6962 6.7855 0.236 9.0
11.7095 6.7143 0.2356 9.0
11.7039 6.6839 0.2353 9.0
11.7143 6.6088 0.2348 9.0
11.7067 6.5775 0.2344 9.0
11.7141 6.4986 0.2338 9.0
11.6869 6.4568 0.2331 9.0
11.6995 6.3841 0.2326 9.0
11.6948 6.3551 0.2323 9.0
11.7092 6.2863 0.232 9.0
11.6955 6.2527 0.2315 9.0
11.6874 6.1699 0.2307 9.0
11.684 6.142 0.2304 9.0
11.6947 6.0697 0.23 9.0
11.691 6.0419 0.2297 9.0
11.6965 5.97 0.2292 9.0
11.6677 5.9296 0.2285 10.0
2.8919 1.7666 -0.7824 6.0
2.9017 1.7656 -0.7842 6.0
2.9142 1.7524 -0.7851 6.0
2.9106 1.7433 -0.7833 7.0
2.9127 1.7246 -0.7815 6.0
2.9157 1.7195 -0.7815 6.0
2.9317 1.7076 -0.7833 6.0
2.9414 1.7064 -0.7851 6.0
2.9466 1.6896 -0.7842 8.0
2.936 1.6767 -0.7806 6.0
2.9448 1.6613 -0.7806 6.0
2.9545 1.66 -0.7824 6.0
2.9702 1.6478 -0.7842 6.0
2.9628 1.6369 -0.7815 6.0
2.9645 1.6177 -0.7797 6.0
2.9793 1.619 -0.7828 8.0
2.9892 1.6048 -0.7833 6.0
2.9954 1.6014 -0.7842 6.0
3.0003 1.5839 -0.7833 6.0
2.9927 1.5732 -0.7806 9.0
2.9992 1.5566 -0.7801 7.0
3.0071 1.5541 -0.7815 8.0
3.0184 1.5406 -0.7824 6.0
3.0281 1.5389 -0.7842 9.0
13.371 8.1681 0.8212 4.0
13.4467 8.1821 0.8249 8.0
13.6502 8.2084 0.8348 12.0
13.5035 8.0881 0.8249 4.0
13.7539 8.1438 0.8377 8.0
13.9849 8.2476 0.8509 4.0
13.6876 7.9727 0.8302 4.0
13.6496 7.9188 0.827 12.0
13.797 7.9112 0.8335 17.0
13.8316 7.899 0.8348 4.0
13.8171 7.795 0.8314 4.0
14.2555 8.0096 0.8569 18.0
14.6602 8.1329 0.8786 23.0
14.9453 8.2571 0.8948 4.0
12.7302 6.9465 0.76 32.0
13.6882 7.4383 0.8164 21.0
15.561 8.3542 0.9256 20.0
12.8032 6.8449 0.7609 8.0
12.913 6.8169 0.7653 36.0
12.955 6.8102 0.767 52.0
15.0693 7.7878 0.889 42.0
15.0018 7.657 0.8827 9.0
13.053 6.6336 0.7673 44.0
3.3977 2.0756 -0.7739 9.0
3.3912 2.0635 -0.7716 9.0
3.3986 2.0437 -0.7709 9.0
3.4072 2.0408 -0.772 9.0
3.4293 2.0305 -0.7747 8.0
3.4346 2.0255 -0.7751 9.0
3.4268 1.9961 -0.7709 9.0
3.4337 1.992 -0.7716 9.0
3.454 1.9805 -0.7739 9.0
3.4574 1.9745 -0.7739 9.0
3.4711 1.9583 -0.7747 9.0
3.4574 1.9426 -0.7709 9.0
3.4713 1.9258 -0.7716 9.0
3.4798 1.9225 -0.7728 9.0
3.4916 1.9052 -0.7732 9.0
3.4983 1.901 -0.7739 9.0
3.5027 1.8805 -0.7728 9.0
3.4991 1.8707 -0.7712 9.0
3.514 1.8551 -0.7724 9.0
3.5173 1.849 -0.7724 9.0
3.5269 1.8305 -0.7724 9.0
3.5266 1.8225 -0.7716 9.0
3.5323 1.8029 -0.7709 9.0
3.5389 1.7985 -0.7716 9.0
13.9556 8.5252 1.4307 10.0
14.0079 8.5236 1.4346 17.0
14.0933 8.4748 1.4388 8.0
14.5422 8.7102 1.483 15.0
14.545 8.6122 1.4789 15.0
14.5703 8.5928 1.4799 21.0
14.6131 8.5119 1.4796 7.0
14.4401 8.3774 1.4606 12.0
14.4149 8.2655 1.4538 7.0
14.4432 8.2483 1.4552 14.0
14.4549 8.1549 1.452 15.0
14.8356 8.3356 1.4888 1.0
15.114 8.3847 1.5122 5.0
14.7728 8.1618 1.4766 1.0
12.7184 6.94 1.2676 6.0
29.1145 15.821 2.899 12.0
12.8022 6.8731 1.2713 3.0
18.9129 10.1113 1.8763 10.0
15.7958 8.3388 1.5627 5.0
15.7169 8.262 1.5535 13.0
15.6291 8.1117 1.5406 7.0
22.5869 11.6729 2.2244 3.0
17.5348 8.9499 1.7224 4.0
18.3586 9.33 1.8017 9.0
4.1991 2.5652 -0.7794 8.0
4.2036 2.5578 -0.7794 8.0
4.2102 2.5317 -0.7781 8.0
4.2078 2.5203 -0.7769 8.0
4.2239 2.501 -0.7775 8.0
4.2351 2.4976 -0.7787 8.0
4.2485 2.4747 -0.7787 8.0
4.2545 2.4683 -0.779 8.0
4.2584 2.4418 -0.7775 8.0
4.2695 2.4383 -0.7787 8.0
4.2788 2.4139 -0.7781 8.0
4.2865 2.4084 -0.7787 8.0
4.296 2.3833 -0.7781 8.0
4.2846 2.3672 -0.7753 8.0
4.3073 2.3504 -0.7772 8.0
4.2992 2.3362 -0.775 6.0
4.318 2.3182 -0.7762 8.0
4.3307 2.3153 -0.7778 4.0
4.3428 2.2926 -0.7778 4.0
4.3503 2.2869 -0.7784 5.0
4.3762 2.2713 -0.7809 7.0
4.3661 2.2564 -0.7784 8.0
4.374 2.2325 -0.7778 8.0
4.3744 2.2231 -0.7772 8.0
14.5076 8.8624 2.0874 11.0
14.6264 8.9 2.1022 8.0
14.797 8.898 2.12 11.0
14.8125 8.8721 2.12 11.0
14.8163 8.7728 2.1142 11.0
14.8657 8.7671 2.1191 11.0
14.9387 8.7015 2.1227 11.0
19.0714 11.0642 2.7072 4.0
19.8676 11.3921 2.812 19.0
16.3364 9.3295 2.3099 3.0
16.0808 9.0721 2.267 3.0
18.9175 10.629 2.6643 4.0
16.6383 9.2303 2.3362 3.0
18.7429 10.3552 2.6292 4.0
14.8447 8.1003 2.0764 5.0
18.0176 9.7909 2.5178 14.0
15.6516 8.4029 2.1812 8.0
15.5402 8.3082 2.1637 2.0
16.2927 8.6011 2.2621 3.0
19.0558 10.0173 2.6433 8.0
19.1503 9.9393 2.6492 17.0
22.3983 11.5755 3.0957 6.0
18.3228 9.3521 2.5259 3.0
18.7515 9.5296 2.5827 15.0
5.4107 3.3053 -0.7785 18.0
5.4029 3.2876 -0.7766 21.0
5.4234 3.2613 -0.777 23.0
5.4308 3.2528 -0.7773 21.0
5.4472 3.2253 -0.7773 25.0
5.4374 3.2067 -0.7751 28.0
5.4547 3.1773 -0.7751 23.0
5.4688 3.1727 -0.7763 22.0
5.4865 3.146 -0.7766 20.0
5.4851 3.1325 -0.7756 17.0
5.4876 3.0959 -0.7736 16.0
5.5069 3.0941 -0.7756 17.0
5.5287 3.0671 -0.7763 16.0
5.5236 3.0517 -0.7748 16.0
5.5517 3.0294 -0.7766 15.0
5.5501 3.0159 -0.7756 13.0
5.5635 2.9869 -0.7753 13.0
5.5722 2.979 -0.7758 13.0
5.5895 2.9507 -0.7761 12.0
5.5946 2.941 -0.7761 11.0
5.6029 2.908 -0.7751 11.0
5.6097 2.8991 -0.7753 13.0
5.6332 2.8752 -0.7766 11.0
5.6346 2.8636 -0.7761 11.0
15.389 9.4009 2.8562 8.0
19.3103 11.7501 3.5802 10.0
19.3343 11.6264 3.5733 30.0
19.2597 11.5358 3.5558 20.0
19.379 11.4744 3.567 40.0
15.2881 9.0162 2.8111 7.0
15.3811 8.9592 2.8193 15.0
15.3796 8.9224 2.8161 7.0
16.0312 9.1923 2.9269 8.0
17.4264 9.9519 3.1784 9.0
18.3901 10.375 3.3443 19.0
16.1418 9.0695 2.9325 8.0
12.3317 6.8412 2.2336 11.0
18.5958 10.2739 3.3649 9.0
19.2216 10.4887 3.4682 9.0
16.9939 9.2346 3.0633 9.0
17.0404 9.1485 3.0633 9.0
20.0144 10.7001 3.5946 10.0
18.8054 9.9275 3.368 48.0
18.7597 9.8616 3.3568 48.0
18.478 9.5903 3.2973 19.0
18.449 9.5345 3.2892 19.0
15.3371 7.8281 2.7273 7.0
14.2131 7.2232 2.5252 13.0
7.6885 4.6968 -0.7882 9.0
7.6933 4.6813 -0.7879 9.0
7.7109 4.6368 -0.7872 9.0
7.7155 4.6213 -0.7868 9.0
7.72 4.571 -0.7849 10.0
7.7571 4.5747 -0.7879 9.0
7.7817 4.5327 -0.7879 9.0
7.769 4.5071 -0.7858 9.0
7.7986 4.4717 -0.7865 9.0
7.8029 4.4561 -0.7861 9.0
7.8296 4.4172 -0.7865 9.0
7.8408 4.4054 -0.7868 9.0
7.8575 4.3591 -0.7861 9.0
7.8564 4.3405 -0.7853 7.0
7.8948 4.3079 -0.7868 9.0
7.9058 4.2961 -0.7872 12.0
7.9064 4.2447 -0.7851 9.0
7.9067 4.2271 -0.7844 9.0
7.9323 4.1875 -0.7848 9.0
7.9466 4.1774 -0.7854 9.0
7.9613 4.132 -0.7848 9.0
7.9844 4.1264 -0.7863 9.0
7.9786 4.0723 -0.7837 9.0
7.9999 4.0656 -0.7851 9.0
15.9347 9.6961 3.6258 11.0
15.2887 9.1937 3.4678 5.0
20.3474 12.1873 4.6103 15.0
12.4909 7.3959 2.8217 8.0
20.2202 11.9249 4.563 20.0
18.0689 10.5248 4.0646 10.0
15.0577 8.7356 3.3838 2.0
18.7004 10.7228 4.1902 20.0
12.9874 7.4169 2.9072 9.0
17.5283 9.8888 3.912 3.0
15.8613 8.9119 3.5365 7.0
15.9299 8.8374 3.541 5.0
16.0312 8.857 3.5601 2.0
16.0222 8.7429 3.5479 5.0
18.6595 10.1397 4.128 15.0
12.4022 6.6584 2.7362 8.0
12.4277 6.6441 2.7393 15.0
18.5754 9.8061 4.0829 14.0
12.4181 6.528 2.727 8.0
18.3227 9.5098 4.0127 14.0
17.7533 9.1749 3.8845 3.0
18.4657 9.425 4.0299 31.0
18.5679 9.4364 4.0486 39.0
11.1023 6.4669 -0.6734 2.0
12.341 6.7341 -0.7368 17.0
11.9403 6.4884 -0.7122 10.0
11.1442 5.983 -0.6629 1.0
11.0489 5.907 -0.6566 1.0
11.0373 5.8267 -0.6541 1.0
10.9838 5.774 -0.6503 1.0
10.9607 5.6888 -0.6472 1.0
10.96 5.6641 -0.6466 1.0
10.9743 5.6013 -0.6457 1.0
11.009 5.5948 -0.6472 1.0
13.9974 8.5508 3.7868 6.0
20.162 12.2683 5.4488 14.0
20.1825 12.1365 5.4371 14.0
20.0866 12.0311 5.4056 14.0
20.1355 11.9224 5.4024 28.0
16.9721 10.0093 4.549 3.0
20.0166 11.6593 5.348 13.0
20.0369 11.6243 5.348 13.0
20.0803 11.514 5.3439 27.0
17.5806 10.04 4.674 8.0
20.5963 11.6197 5.4596 14.0
17.7114 9.9514 4.6902 4.0
20.3347 11.281 5.3687 14.0
20.4192 11.2813 5.3858 7.0
20.4814 11.1761 5.3867 14.0
20.7406 11.2706 5.4497 29.0
20.8146 11.1747 5.4542 22.0
21.2843 11.3791 5.572 15.0
17.6901 9.3388 4.6182 16.0
16.6162 8.7348 4.3339 7.0
21.055 10.9279 5.4767 14.0
21.7216 11.2257 5.6449 16.0
18.2268 9.3031 4.7244 4.0
24.5076 12.4549 6.3468 10.0
10.9912 6.688 -0.2246 1.0
11.002 6.6159 -0.2241 1.0
10.9861 6.5803 -0.2235 1.0
11.0262 6.5287 -0.2237 1.0
11.0823 6.5358 -0.2246 1.0
11.1175 6.4758 -0.2246 1.0
11.0666 6.4202 -0.2233 1.0
11.1614 6.3999 -0.2246 1.0
11.0804 6.2511 -0.2221 1.0
11.1296 6.2533 -0.2228 1.0
11.1003 6.1581 -0.2216 1.0
11.6134 6.4162 -0.2316 8.0
11.61 6.3352 -0.2309 1.0
11.6351 6.3226 -0.2311 1.0
11.6616 6.2608 -0.231 11.0
11.1276 5.9491 -0.2202 1.0
11.0808 5.8497 -0.2187 1.0
11.0804 5.8247 -0.2185 1.0
11.0433 5.7316 -0.2172 2.0
11.0249 5.6977 -0.2166 3.0
11.0678 5.6491 -0.2169 3.0
11.0812 5.6315 -0.217 2.0
22.7176 12.9737 7.0099 13.0
24.0303 13.557 7.3929 14.0
20.7697 11.6697 6.3835 10.0
21.7651 12.0745 6.6692 11.0
23.7307 13.1108 7.2645 14.0
23.8058 12.9901 7.2666 14.0
23.7469 12.9043 7.2418 13.0
22.7805 12.2302 6.9281 12.0
22.7677 12.1722 6.9177 12.0
12.9463 6.8345 3.9227 13.0
21.4466 11.274 6.4922 11.0
21.1075 10.9551 6.3721 21.0
13.3144 6.8809 4.0158 4.0
24.4864 12.4442 7.3598 14.0
2.6126 1.3106 -0.7832 8.0
2.6235 1.3103 -0.7858 9.0
2.62 1.2915 -0.7827 9.0
2.6222 1.2869 -0.7827 9.0
2.6324 1.2748 -0.7837 8.0
2.6311 1.2685 -0.7827 9.0
2.6412 1.2564 -0.7837 8.0
2.6434 1.2518 -0.7837 9.0
2.6394 1.233 -0.7806 8.0
2.6468 1.2309 -0.7822 8.0
2.6563 1.2195 -0.7832 8.0
2.6655 1.2181 -0.7853 8.0
2.665 1.2005 -0.7832 8.0
2.6635 1.1943 -0.7822 8.0
2.6715 1.1811 -0.7827 7.0
2.6736 1.1764 -0.7827 7.0
2.6884 1.1667 -0.7853 8.0
2.6851 1.1597 -0.7837 8.0
2.6824 1.1414 -0.7811 8.0
2.688 1.1382 -0.7822 8.0
2.699 1.1268 -0.7837 8.0
2.7081 1.1251 -0.7858 7.0
2.6981 1.1038 -0.7811 8.0
2.7036 1.1006 -0.7822 10.0
11.6807 5.8595 0.2281 9.0
11.673 5.8301 0.2278 10.0
11.6891 5.7619 0.2275 9.0
11.6704 5.7274 0.2269 10.0
11.675 5.654 0.2264 9.0
11.6596 5.6214 0.2259 9.0
11.6745 5.5534 0.2257 10.0
11.6661 5.5245 0.2253 10.0
11.6731 5.4532 0.2249 9.0
11.6608 5.4227 0.2245 9.0
11.6618 5.3539 0.224 10.0
11.6602 5.3286 0.2238 11.0
11.6779 5.2605 0.2236 11.0
11.6615 5.2287 0.2231 11.0
11.6631 5.1562 0.2226 12.0
11.6611 5.131 0.2224 10.0
11.6686 5.064 0.222 11.0
11.6627 5.0373 0.2218 11.0
11.6585 4.9608 0.2212 12.0
11.6543 4.935 0.2209 11.0
11.657 4.8667 0.2205 12.0
11.6525 4.8409 0.2202 12.0
11.6693 4.774 0.2201 12.0
11.6572 4.7454 0.2197 12.0
3.0117 1.5108 -0.7779 6.0
3.0213 1.509 -0.7797 7.0
3.0326 1.4949 -0.7806 6.0
3.044 1.4939 -0.7828 7.0
3.05 1.4771 -0.7824 7.0
3.0456 1.4684 -0.7806 6.0
3.055 1.4532 -0.781 7.0
3.0593 1.4487 -0.7815 7.0
3.0703 1.4343 -0.7824 6.0
3.0781 1.4314 -0.7837 8.0
3.0692 1.4091 -0.7797 6.0
3.0716 1.4037 -0.7797 6.0
3.0916 1.3927 -0.7828 8.0
3.0958 1.3881 -0.7833 6.0
3.0995 1.3703 -0.7824 6.0
3.0876 1.3586 -0.7788 7.0
3.0944 1.3429 -0.7788 6.0
3.1164 1.346 -0.7837 7.0
3.1201 1.3276 -0.7828 6.0
3.1224 1.3222 -0.7828 6.0
3.1183 1.3018 -0.7801 6.0
3.1277 1.2994 -0.7819 8.0
3.1329 1.2817 -0.7815 6.0
3.1352 1.2762 -0.7815 6.0
12.9215 6.4819 0.7576 48.0
12.881 6.4335 0.7546 16.0
12.8823 6.35 0.7527 36.0
13.0403 6.3997 0.7613 12.0
13.0629 6.3261 0.7607 44.0
13.0289 6.2816 0.758 48.0
13.1825 6.2708 0.765 36.0
13.2403 6.27 0.7678 36.0
13.2477 6.1887 0.7663 24.0
15.8844 7.3868 0.9181 5.0
15.8913 7.2957 0.9164 20.0
15.9657 7.2962 0.92 20.0
16.0378 7.2245 0.9218 5.0
16.0504 7.1965 0.9218 5.0
16.0586 7.0994 0.9202 20.0
16.0435 7.0593 0.9186 25.0
16.1102 6.9915 0.9204 20.0
16.093 6.9507 0.9187 10.0
13.3002 5.6593 0.7575 4.0
16.3851 6.9382 0.9325 5.0
15.1833 6.3389 0.8623 22.0
16.1443 6.707 0.9162 5.0
13.1302 5.3717 0.7435 7.0
15.4815 6.3021 0.876 13.0
3.5518 1.7817 -0.7724 9.0
3.5584 1.7773 -0.7732 9.0
3.5589 1.7543 -0.7712 9.0
3.5531 1.7437 -0.7693 9.0
3.5763 1.7319 -0.7724 9.0
3.59 1.7308 -0.7747 9.0
3.5919 1.7086 -0.7732 9.0
3.5807 1.6956 -0.7701 9.0
3.593 1.6785 -0.7709 9.0
3.5995 1.6739 -0.7716 9.0
3.6148 1.6596 -0.7732 9.0
3.6123 1.6508 -0.772 9.0
3.6158 1.6288 -0.7709 9.0
3.6187 1.6225 -0.7709 9.0
3.6271 1.6035 -0.7709 9.0
3.6425 1.6027 -0.7735 9.0
3.647 1.5827 -0.7728 9.0
3.6335 1.5693 -0.7693 8.0
3.651 1.5535 -0.7712 9.0
3.6519 1.5464 -0.7709 9.0
3.6651 1.5301 -0.772 9.0
3.6659 1.523 -0.7716 8.0
3.665 1.4994 -0.7697 9.0
3.6713 1.4945 -0.7705 9.0
16.3022 8.1778 1.5956 4.0
12.9458 6.4658 1.266 6.0
12.9634 6.39 1.2645 16.0
12.9603 6.3604 1.2631 16.0
13.0472 6.3185 1.2683 16.0
13.0366 6.2853 1.2662 15.0
16.7254 7.9561 1.6204 12.0
19.3214 9.1497 1.8704 5.0
19.1163 8.9303 1.846 5.0
20.5067 9.5363 1.9786 11.0
19.1281 8.7817 1.8414 5.0
23.3475 10.6696 2.2458 7.0
19.1795 8.6397 1.8404 5.0
16.3294 7.3216 1.5657 16.0
19.3906 8.5725 1.8548 10.0
19.3454 8.5122 1.8491 2.0
13.0717 5.6729 1.2467 1.0
13.1511 5.6801 1.2533 6.0
15.0461 6.4022 1.4306 19.0
15.0554 6.3751 1.4304 15.0
25.3303 10.5751 2.4015 17.0
25.3579 10.5347 2.4024 8.0
19.6003 8.0187 1.8528 27.0
15.512 6.3146 1.4653 14.0
4.3683 2.1913 -0.774 13.0
4.3986 2.1969 -0.7787 11.0
4.4154 2.1765 -0.7797 9.0
4.4085 2.1635 -0.7778 9.0
4.4127 2.137 -0.7765 9.0
4.4182 2.1301 -0.7769 10.0
4.4382 2.1112 -0.7784 10.0
4.4401 2.1026 -0.7781 9.0
4.451 2.0793 -0.7781 8.0
4.4421 2.0657 -0.7759 8.0
4.4557 2.0456 -0.7765 8.0
4.4611 2.0387 -0.7769 8.0
4.4757 2.0161 -0.7775 8.0
4.4792 2.0083 -0.7775 8.0
4.4806 1.9809 -0.7759 8.0
4.4822 1.9722 -0.7756 8.0
4.4958 1.9511 -0.7762 8.0
4.5137 1.9495 -0.7787 8.0
4.5151 1.9212 -0.7772 8.0
4.5148 1.9118 -0.7765 8.0
4.5226 1.8881 -0.7762 9.0
4.5314 1.8825 -0.7772 10.0
4.547 1.8602 -0.7781 9.0
4.5465 1.8508 -0.7775 9.0
17.8979 8.9783 2.4586 3.0
17.7662 8.8734 2.4384 13.0
21.3005 10.4996 2.9158 5.0
15.3702 7.5431 2.1022 2.0
19.0203 9.2111 2.5948 28.0
19.0685 9.1935 2.5992 16.0
19.1845 9.1259 2.6085 16.0
19.7512 9.3532 2.6833 8.0
19.8017 9.2505 2.6836 26.0
14.7581 6.863 1.9984 10.0
14.7842 6.7875 1.9974 5.0
18.3438 8.383 2.4764 14.0
22.8685 10.3015 3.0796 6.0
14.5941 6.5435 1.9638 23.0
18.8149 8.318 2.5259 3.0
22.8231 10.0424 3.0616 5.0
18.871 8.1897 2.5259 3.0
15.4064 6.6542 2.0606 11.0
14.9453 6.3593 1.9943 21.0
19.126 8.0988 2.5502 3.0
21.0139 8.73 2.794 4.0
15.4938 6.3387 2.0554 11.0
14.5267 5.9135 1.9258 2.0
5.646 2.8322 -0.7756 12.0
5.6438 2.8188 -0.7746 12.0
5.6656 2.7928 -0.7756 11.0
5.6669 2.7811 -0.7751 12.0
5.6814 2.7514 -0.7751 12.0
5.6898 2.7432 -0.7756 13.0
5.6969 2.71 -0.7746 11.0
5.6945 2.6966 -0.7736 11.0
5.7121 2.6685 -0.7741 12.0
5.7239 2.6618 -0.7751 11.0
5.7333 2.6322 -0.7746 11.0
5.7342 2.6205 -0.7741 11.0
5.7483 2.5894 -0.7741 12.0
5.7673 2.5859 -0.7761 11.0
5.7735 2.5525 -0.7751 11.0
5.778 2.5424 -0.7751 12.0
5.7689 2.5036 -0.7722 12.0
5.7842 2.4983 -0.7736 12.0
5.8013 2.4685 -0.7741 12.0
5.8093 2.4599 -0.7746 12.0
5.8253 2.432 -0.7751 11.0
5.8112 2.4142 -0.7727 11.0
5.8279 2.3842 -0.7731 12.0
5.8394 2.3771 -0.7741 11.0
17.1782 8.6172 3.0439 9.0
16.1541 8.0682 2.8599 8.0
16.9616 8.3608 2.9951 17.0
14.3481 7.0415 2.5314 6.0
18.9681 9.1859 3.338 19.0
13.4609 6.4899 2.3669 6.0
18.0649 8.5933 3.1684 9.0
14.0629 6.6595 2.4645 6.0
15.3361 7.1644 2.681 7.0
14.2237 6.6145 2.4845 31.0
17.6381 8.0977 3.0739 9.0
18.6798 8.5365 3.2529 47.0
17.8288 8.0313 3.0971 9.0
18.7873 8.4237 3.261 38.0
17.7833 7.8619 3.0796 27.0
12.4649 5.4847 2.1569 39.0
12.5052 5.427 2.1591 28.0
12.4585 5.3809 2.1494 61.0
12.5965 5.3599 2.1682 61.0
12.6258 5.3463 2.1716 28.0
19.0292 7.9445 3.266 38.0
12.7203 5.2845 2.1816 11.0
16.7088 6.8357 2.8593 16.0
12.7285 5.1814 2.1766 11.0
8.0229 4.0246 -0.7853 7.0
8.0281 4.0097 -0.7851 9.0
8.0526 3.9693 -0.7854 9.0
8.0452 3.9483 -0.7841 9.0
8.0729 3.9095 -0.7848 9.0
8.0905 3.9006 -0.7858 9.0
8.1108 3.8582 -0.7858 9.0
8.1031 3.8372 -0.7844 9.0
8.1195 3.7931 -0.7841 9.0
8.1261 3.7789 -0.7841 9.0
8.1481 3.7408 -0.7844 9.0
8.151 3.7249 -0.7841 9.0
8.1674 3.6791 -0.7837 9.0
8.1701 3.6632 -0.7834 9.0
8.1673 3.6107 -0.7813 9.0
8.1919 3.6045 -0.783 9.0
